ply
format ascii 1.0
element vertex 925
property float x
property float y
property float z
property uchar diffuse_red
property uchar diffuse_green
property uchar diffuse_blue
end_header
-3.880829e+01 1.894374e+01 -7.428333e+01 70 64 27
-4.957960e+01 2.013229e+01 -7.920251e+01 166 170 108
-4.923368e+01 2.061240e+01 -8.000878e+01 99 110 38
-5.014862e+01 2.090090e+01 -8.036425e+01 132 133 67
-4.588122e+01 2.079794e+01 -7.885491e+01 86 59 34
-5.377645e+01 2.122950e+01 -8.146403e+01 227 197 142
-2.919168e+01 1.565882e+01 -6.504847e+01 45 39 4
-3.909307e+01 1.817567e+01 -7.407873e+01 86 72 28
-3.878094e+01 1.847964e+01 -7.444701e+01 191 174 78
-4.997885e+01 1.896253e+01 -7.736401e+01 105 96 50
-4.997885e+01 1.896253e+01 -7.736401e+01 105 96 50
-4.040929e+01 1.860779e+01 -7.401644e+01 147 157 73
-5.005091e+01 1.931988e+01 -7.794587e+01 172 166 106
-4.159717e+01 1.929040e+01 -7.453146e+01 137 122 65
-4.972746e+01 2.068968e+01 -7.999282e+01 200 197 131
-5.287364e+01 2.111353e+01 -8.120725e+01 181 186 112
-5.009957e+01 2.105060e+01 -8.050397e+01 203 214 147
-4.906133e+01 2.117759e+01 -8.092230e+01 91 83 43
-5.164313e+01 2.091850e+01 -7.996757e+01 92 103 37
-5.241940e+01 2.122883e+01 -8.080917e+01 194 191 107
-5.008552e+01 2.174854e+01 -8.132555e+01 219 213 124
-4.319394e+01 2.184454e+01 -8.071812e+01 191 192 135
-5.080201e+01 2.190197e+01 -8.114537e+01 103 119 22
-4.185555e+01 1.791446e+01 -7.325717e+01 73 73 27
-4.159938e+01 1.812798e+01 -7.318992e+01 77 83 23
-3.202309e+02 4.035331e+01 -2.007285e+02 254 254 252
-3.301511e+02 3.944691e+01 -2.061612e+02 248 248 237
-3.212362e+02 3.841420e+01 -1.992794e+02 249 246 235
-1.879531e+00 -2.434580e+00 1.834568e+00 202 188 161
-1.916001e+00 -2.157477e+00 1.988876e+00 59 60 80
-5.913629e+01 1.997936e+01 -8.036151e+01 149 129 96
-5.889230e+01 2.018532e+01 -8.071556e+01 199 188 132
-1.638467e+00 -2.305576e+00 1.293534e+00 29 40 60
-3.916587e+01 1.895281e+01 -7.371397e+01 75 69 39
-7.013520e+01 2.080456e+01 -8.570855e+01 198 187 153
-6.978934e+01 2.235538e+01 -8.565001e+01 164 131 88
-2.100207e+00 -2.679299e+00 2.269434e+00 211 208 177
-2.106421e+00 -2.614796e+00 2.248220e+00 158 166 149
-1.934931e+00 -2.508421e+00 1.833519e+00 154 165 146
-1.937075e+00 -2.059278e+00 2.056037e+00 169 64 59
-7.393186e+01 2.206235e+01 -8.802053e+01 134 120 81
-7.393186e+01 2.206235e+01 -8.802053e+01 134 120 81
-2.042092e+00 -2.692535e+00 2.127476e+00 203 202 182
-2.057108e+00 -2.679058e+00 2.131260e+00 60 58 44
-2.031631e+00 -2.660311e+00 2.091569e+00 205 208 175
-1.879883e+00 -2.619416e+00 1.739215e+00 209 207 195
-1.870296e+00 -2.564622e+00 1.743175e+00 64 67 65
-1.913041e+00 -2.457350e+00 1.839663e+00 198 194 160
-1.814209e+00 -2.253010e+00 1.738995e+00 209 197 169
-1.587585e+00 -2.210417e+00 1.172733e+00 121 123 109
-2.043145e+00 -2.129966e+00 2.304745e+00 161 64 67
-2.023562e+00 -2.092374e+00 2.268177e+00 173 61 60
-2.042150e+00 -2.085171e+00 2.317678e+00 158 67 68
3.319359e-01 2.788568e-02 6.467424e+00 146 148 145
-5.739938e+01 2.164989e+01 -8.207055e+01 66 46 36
-5.704233e+01 2.307540e+01 -8.434510e+01 192 168 122
-5.704233e+01 2.307540e+01 -8.434510e+01 192 168 122
-2.076573e+00 -2.710645e+00 2.188042e+00 72 68 67
-1.833564e+00 -2.568404e+00 1.657642e+00 66 72 77
-1.631547e+00 -2.322535e+00 1.231363e+00 106 108 106
-2.059252e+00 -2.143783e+00 2.332755e+00 148 59 31
-1.990337e+00 -2.096574e+00 2.163897e+00 138 69 59
-1.959317e+00 -2.077199e+00 2.105904e+00 120 62 51
-1.892247e+00 -2.030464e+00 1.961307e+00 148 62 57
-1.872342e+00 -2.020545e+00 1.898999e+00 138 72 62
-4.094499e+01 1.825587e+01 -7.377546e+01 83 62 16
-4.040237e+01 1.859591e+01 -7.399612e+01 118 123 57
-7.613520e+02 7.203366e+01 -4.109513e+02 193 122 104
-5.900329e+01 2.010829e+01 -8.002893e+01 136 117 77
-5.000054e+01 2.070294e+01 -7.975386e+01 129 135 67
-3.085706e+02 4.737241e+01 -2.060088e+02 117 124 115
-1.705625e+01 3.004827e+00 4.000240e-01 64 70 78
-2.049886e+00 -2.656500e+00 2.258588e+00 232 232 217
-2.112990e+02 -5.765164e+00 -1.663742e+01 119 114 100
-3.348217e+02 2.415111e+01 -8.602535e+01 207 203 165
-1.717505e+01 2.442466e+00 -3.812817e-01 125 160 169
-1.901879e+02 -3.156347e+01 6.590539e+01 194 198 140
-1.726969e+00 -2.125369e+00 5.001346e-01 27 27 27
-1.331591e+01 5.440043e-01 2.601814e+00 169 198 219
-8.752757e+01 -1.478061e+01 3.098981e+01 52 58 57
-3.691095e+00 -3.742605e+00 3.591438e+00 18 18 18
-1.005610e+00 -1.142641e+00 -7.254877e-01 103 56 36
-2.829515e+00 4.941695e-01 -2.263657e+00 98 105 120
-2.037199e+00 -2.332152e+00 2.259680e+00 228 227 223
-2.509087e+02 1.248858e+01 -3.356930e+01 107 97 86
-1.033013e+02 -7.237005e+00 4.825633e+01 129 127 99
-1.457663e+00 -1.877547e+00 9.810385e-01 151 163 160
-8.768395e+01 -1.524223e+01 3.084488e+01 32 34 32
-7.102547e+00 -4.407015e-01 -6.140165e+00 76 82 80
-4.947201e+00 -2.078830e+00 -5.336608e+00 105 115 112
-4.791574e+00 -1.874151e+00 -5.128228e+00 12 12 16
-8.431763e+01 -1.950351e+01 5.694540e+01 32 38 27
-1.108513e+02 -1.394550e+01 2.714137e+01 210 191 171
-7.715401e+02 3.919973e+00 -1.465869e+02 251 253 255
-2.434094e+00 -8.499996e-01 1.835194e+00 9 13 8
-9.093887e+01 -8.702110e+00 8.923778e+00 116 101 66
-3.376015e+02 3.954783e+01 -2.109547e+02 33 36 23
-3.813396e+02 -8.358971e+01 2.695722e+02 105 127 150
-1.938216e+02 -2.223152e+00 -4.730893e+00 96 89 78
-2.725385e+01 -2.899198e+00 2.790368e+01 19 29 25
-1.293780e+02 -1.408500e+01 3.692877e+01 54 60 49
-1.497367e+00 -1.778015e+00 6.814226e-01 88 90 86
-1.547067e+00 -2.422542e+00 1.178864e+00 193 186 181
-1.848513e+00 -5.262656e-01 3.350081e-01 95 103 91
-1.737102e+00 -2.065362e+00 1.562770e+00 47 53 69
-1.880716e+00 -2.544240e+00 1.834375e+00 202 196 179
-2.027276e+00 -2.646996e+00 2.176206e+00 23 23 23
-4.434862e+00 -5.223459e+00 3.477605e+00 61 61 54
-4.591305e+00 -5.064427e+00 2.904510e+00 64 59 52
-2.926111e+00 -1.070147e+00 4.067538e+00 132 126 130
-2.357842e+00 -3.388662e+00 -2.117953e+00 78 77 74
-2.005787e+00 -2.677125e+00 2.059133e+00 160 172 188
-1.832542e+00 -2.577367e+00 1.820940e+00 166 182 210
-5.776457e-01 -4.235854e+00 -6.014127e-01 75 71 71
-8.368566e-01 -4.241388e+00 -4.749813e-01 37 36 43
-3.116743e-01 -4.427808e+00 -2.638578e-01 45 45 45
-1.773733e+00 -2.267187e+00 1.582926e+00 158 191 218
-1.727358e+00 -1.949936e+00 1.585432e+00 71 135 135
-1.668050e+00 -1.805540e+00 1.468293e+00 55 125 126
-1.961876e+00 -2.894852e+00 -3.212034e+00 41 36 34
-1.961876e+00 -2.894852e+00 -3.212034e+00 41 36 34
-1.784123e+00 -2.250781e+00 1.628546e+00 164 188 212
-1.260037e+00 -1.968138e+00 8.171925e-01 113 111 115
-1.634002e+00 -1.883532e+00 1.386431e+00 209 220 226
-1.556621e+00 -1.871904e+00 1.199321e+00 206 197 196
-3.434913e+00 -1.667286e+00 4.581797e+00 179 193 216
-1.571812e+00 -1.760630e+00 1.249225e+00 217 206 198
-1.571812e+00 -1.760630e+00 1.249225e+00 217 206 198
-1.000391e+02 -1.131946e+01 1.760525e+01 203 176 117
-1.573582e+02 -7.744182e+00 -8.827597e+00 63 63 54
-3.131003e+02 3.779553e+01 -1.996615e+02 253 254 218
-3.063628e+02 4.229438e+01 -2.162851e+02 249 252 223
-3.229487e+02 1.717431e+01 -1.160395e+02 217 208 174
-3.229487e+02 1.717431e+01 -1.160395e+02 217 208 174
-1.388968e+02 2.960540e+01 -1.253728e+02 173 150 116
-3.380622e+02 1.595981e+01 -1.207946e+02 247 240 176
-6.451968e+01 -1.884851e+01 6.935406e+01 166 165 115
-1.034956e+02 -7.748756e+00 4.859898e+01 250 248 232
-3.125099e+00 -8.615823e-01 -4.221228e+00 10 14 17
-1.847891e+01 4.633473e-01 -1.055898e+01 146 151 145
-4.194072e+02 -1.021450e+02 3.236376e+02 238 244 247
-6.424683e+01 -1.512523e+01 6.945617e+01 29 37 16
-6.128159e+01 -2.745443e+00 1.408076e+01 102 105 86
-8.415737e+01 -1.539625e+01 3.370565e+01 55 63 39
-8.895419e+01 -1.484969e+01 3.039936e+01 116 116 111
-8.866528e+01 -1.491042e+01 3.100951e+01 50 53 39
-6.705360e+01 -1.534451e+01 3.413614e+01 122 124 78
-3.398574e+00 3.689946e-01 -3.543109e+00 203 204 196
-2.400547e+01 9.980256e-01 -1.238273e+01 70 81 84
-2.016261e+00 2.884053e-01 -2.265536e+00 226 221 210
-1.742249e+01 1.605317e+00 -1.011107e+01 134 136 133
-4.665415e+00 -8.105168e-01 -4.905128e+00 135 146 160
-1.218443e+00 -9.082639e-01 -1.846882e+00 169 101 31
-1.277153e+00 -6.943855e-01 -1.621526e+00 255 255 255
-2.386607e+01 2.083624e+00 -1.235438e+01 132 173 220
-2.386607e+01 2.083624e+00 -1.235438e+01 132 173 220
-4.861433e+00 -1.894050e+00 -5.128634e+00 11 11 10
-8.465050e+01 -6.709797e+00 3.425005e-01 253 134 127
-4.769832e+00 -1.104894e+00 -5.009434e+00 125 126 125
-4.769832e+00 -1.104894e+00 -5.009434e+00 125 126 125
-1.905215e+01 -5.921467e-02 -1.106249e+01 115 116 115
-6.291811e+01 -2.391275e+01 7.746302e+01 195 196 189
-8.524870e+01 -7.848765e+00 1.998852e+00 104 99 90
-8.660456e+01 -6.949155e+00 3.482513e+00 133 133 100
-4.686351e+01 -2.405101e+01 7.591994e+01 120 118 100
-6.727651e+01 -2.266744e+01 6.527896e+01 63 65 56
-6.727651e+01 -2.266744e+01 6.527896e+01 63 65 56
-5.292789e+00 -1.118229e+00 -5.235874e+00 127 127 128
-8.663322e+01 -7.904914e+00 3.602424e+00 207 194 169
-8.645449e+01 -5.639980e+00 -1.845760e+00 96 89 72
-8.660540e+01 -5.206903e+00 -3.373362e+00 98 98 65
-1.408048e+02 -1.291653e+01 2.614385e+01 54 52 38
-1.748792e+00 -2.197770e-01 9.756719e-02 255 255 254
-1.884337e+01 -1.141157e-01 -1.099763e+01 111 114 116
-4.304073e+01 -1.958835e+01 5.500845e+01 31 39 29
-4.861384e+01 -1.933168e+01 5.184507e+01 32 35 28
-5.274016e+01 -1.858477e+01 5.030009e+01 57 62 57
-6.358963e+01 -2.598222e+01 7.694703e+01 51 70 65
-8.268655e+01 -6.182122e+00 -3.486833e+00 142 136 128
-8.342992e+01 -6.625824e+00 -1.322579e+00 87 73 73
-8.561667e+01 -6.239022e+00 8.483476e-01 144 125 92
-2.161903e+02 -2.076386e+01 5.783533e+01 251 252 255
-1.034416e+02 -6.865977e+00 4.826729e+01 104 102 85
-1.225526e+02 -5.259328e+00 3.906932e+01 49 53 38
-1.855327e+01 -9.401513e-01 -1.087240e+01 109 111 105
-5.197305e+01 -1.900342e+01 5.008182e+01 29 33 32
-4.975330e+01 -1.879250e+01 5.063352e+01 73 79 78
-5.130201e+01 -1.887457e+01 5.054183e+01 78 85 86
-4.615383e+01 -2.468555e+01 7.676714e+01 73 68 63
-5.269586e+01 -1.860241e+01 4.936862e+01 79 89 84
-5.401217e+01 -1.857640e+01 4.904251e+01 73 83 79
-7.930447e+01 -2.461983e+01 6.906050e+01 56 68 62
-8.706359e+01 -6.505233e+00 2.348699e+00 224 205 172
-8.719566e+01 -6.173559e+00 1.135758e+00 212 196 159
-2.162948e+02 -1.212627e+01 5.968505e+01 250 249 248
-4.963880e+00 -2.061950e+00 -5.270024e+00 35 39 52
-4.753428e+00 -1.092442e+00 -5.011943e+00 138 139 139
-1.982875e+01 -5.207503e-01 -1.146997e+01 153 153 143
-1.898378e+01 7.961523e-01 -1.069909e+01 172 175 163
-4.105665e+01 -1.998161e+01 5.441411e+01 126 127 125
-4.143172e+01 -1.754650e+01 4.518258e+01 143 141 129
-4.099416e+01 -1.987746e+01 5.476955e+01 31 27 23
-4.487185e+01 -1.968847e+01 5.377783e+01 23 25 16
-4.493815e+01 -1.952192e+01 5.331604e+01 30 30 33
-4.669574e+01 -2.448143e+01 7.478666e+01 86 82 71
-6.327774e+01 -2.482264e+01 7.721194e+01 189 204 161
-5.323262e+01 -1.143085e+01 4.061416e+01 70 82 96
-1.406315e+02 -1.463638e+01 2.663435e+01 70 60 50
-6.390043e+01 -1.596840e+01 6.903407e+01 211 205 183
-2.179396e+02 -2.341814e+01 5.668171e+01 205 201 192
-3.694566e+02 -5.345550e+01 1.251041e+02 212 194 156
-1.816688e+01 2.797338e+00 -9.894971e+00 108 111 98
-3.000550e+00 -7.968437e-01 1.335656e+00 99 133 166
-1.782401e+00 -2.594384e+00 1.582565e+00 43 49 57
-1.862833e+00 -2.623099e+00 1.769647e+00 84 104 123
-2.036193e+00 -3.580127e-01 2.404265e+00 77 83 87
-4.930494e+00 -4.072380e+00 2.686500e+00 95 101 98
-2.118327e+00 -1.891188e+00 1.661961e+00 211 205 211
-1.732857e+00 -2.141063e+00 1.399447e+00 202 204 203
-1.291750e+00 -1.868912e+00 -1.424750e+00 181 198 210
-9.157688e+01 -1.447381e+01 2.867235e+01 46 53 52
-5.822157e+02 -5.083959e+01 7.672574e+01 238 242 237
-3.261077e+00 -1.331396e+00 3.186770e+00 167 181 194
-3.261077e+00 -1.331396e+00 3.186770e+00 167 181 194
-9.194350e+01 -1.172548e+01 1.628017e+01 90 96 92
-9.404769e+01 -1.135670e+01 1.675987e+01 191 186 166
-1.942105e+00 -2.436978e+00 4.176635e-01 23 32 57
-5.960850e+01 -1.818419e+01 4.731755e+01 42 46 49
-6.561015e+01 -2.013395e+01 6.904554e+01 28 38 24
-2.860434e+02 5.881351e+00 -8.488183e+01 84 87 84
-1.396856e+02 -9.976456e+00 2.618742e+01 183 183 155
-6.845883e+01 -1.517672e+01 6.985011e+01 32 40 18
-5.417913e+01 -1.676568e+01 4.085180e+01 188 196 185
-8.499154e+01 -1.555800e+01 3.174224e+01 92 113 48
-9.118798e+01 -1.103266e+01 1.418106e+01 68 69 66
-1.027553e+02 -1.942545e+01 4.731147e+01 89 81 63
-1.210379e+02 -1.730719e+01 3.716812e+01 110 116 85
-1.936089e+02 -8.287342e+00 -6.732494e+00 187 188 174
-1.932318e+02 -8.290509e+00 -6.108304e+00 51 51 41
-2.289698e+02 -3.485465e+00 -2.646375e+01 55 49 37
-3.603108e+02 -4.835417e+01 9.670468e+01 129 142 135
-6.550348e+01 -1.436524e+01 7.080719e+01 104 117 82
-7.724381e-01 -2.178131e-02 -2.418486e-01 33 30 33
-5.292209e+01 -9.474536e+00 2.377562e+01 110 113 109
-1.748212e+01 -3.238898e+00 7.654981e+00 112 105 88
-2.240172e+01 -2.691314e+00 1.952595e+00 220 221 212
-2.280302e+01 -2.713959e+00 1.902358e+00 218 219 210
-2.684908e+01 -3.093978e+00 1.725382e+00 214 217 202
-4.683340e+00 -2.120405e+00 5.927374e+00 249 251 251
-4.683340e+00 -2.120405e+00 5.927374e+00 249 251 251
-1.190923e+00 -2.164276e+00 -5.911691e-01 167 167 156
-1.789195e+00 -2.690906e-01 1.668910e+00 113 125 129
-3.049750e+00 -1.266475e+00 4.559621e+00 108 114 121
-1.026676e+00 4.248274e-01 4.828998e-01 82 67 86
-8.737592e+00 -6.361339e+00 9.019292e+00 60 63 77
-1.741909e+00 -2.204297e+00 1.545803e+00 56 67 106
-1.540505e+00 -1.928954e+00 1.194638e+00 54 68 97
3.258102e+00 -2.741360e+00 1.933973e+01 218 214 174
-4.823824e+01 1.219277e+00 1.381764e+01 68 66 35
-3.375135e+00 -2.388517e+00 5.320301e+00 129 161 190
-3.517806e+00 -2.481354e+00 5.810273e+00 147 157 168
-3.470714e+00 -5.775421e-01 5.687486e+00 149 163 179
-1.020525e+02 -1.650953e+01 4.768961e+01 169 173 174
-1.587967e+02 -1.042592e+01 1.506661e+01 57 59 48
-1.583280e+02 -3.404015e+01 9.048150e+01 189 193 184
-4.826947e+01 -2.485429e+01 7.717876e+01 96 91 71
-4.955989e+01 -1.976279e+01 5.264824e+01 26 32 28
-6.893375e+01 -1.748004e+01 4.100612e+01 132 134 122
-6.054394e+01 -1.459327e+01 3.073360e+01 68 78 90
-5.405043e+01 -1.671933e+01 4.040404e+01 220 223 213
-7.992403e+01 -1.604591e+01 3.497315e+01 30 31 27
-1.215233e+02 -1.506467e+01 3.714868e+01 133 132 114
-2.024595e+02 -2.754806e+01 6.491943e+01 73 86 91
-1.398496e+02 -8.973565e+00 2.648412e+01 204 209 172
-6.874043e+01 -1.105756e+01 6.993979e+01 60 62 42
-4.573273e+00 -3.201698e-01 -4.604998e+00 115 120 117
-1.767154e+01 -4.111784e+00 -6.150849e+00 26 26 22
-9.321382e-01 2.688542e-01 -1.642644e-01 34 25 30
-7.281456e-01 -7.365154e-02 -2.636053e-01 34 29 33
-1.491318e+00 -2.324544e+00 8.096850e-01 135 148 154
-1.855536e+00 -2.259106e+00 1.777847e+00 39 61 105
-1.715198e+00 -1.894378e+00 1.659274e+00 169 177 187
-2.479282e+00 -8.880465e-01 -7.738880e-01 222 244 252
-1.358589e+00 6.376603e-03 -2.543398e+00 254 254 254
-8.761637e-01 1.088653e+00 -1.473304e+00 133 132 136
-8.918775e+01 -1.538337e+01 3.174464e+01 49 50 47
-8.816853e+01 -1.493974e+01 3.046036e+01 38 40 35
-3.620899e+01 -9.649348e+00 1.549264e+01 146 156 53
-4.085388e+01 -1.063286e+01 1.874755e+01 231 223 191
-4.148829e+01 -1.062968e+01 1.919446e+01 110 103 94
-8.932410e+01 -1.506619e+01 3.238828e+01 167 155 86
-1.143366e+01 1.399832e-01 2.838827e+00 33 42 49
-4.097761e+01 -9.967819e+00 1.633835e+01 38 33 39
-9.125455e+01 -1.443295e+01 2.916846e+01 48 49 44
-9.133091e+01 -1.469609e+01 3.092888e+01 105 99 54
-9.755898e+01 -1.207942e+01 2.123652e+01 116 109 80
-9.755898e+01 -1.207942e+01 2.123652e+01 116 109 80
-9.868925e+01 -1.341682e+01 2.654342e+01 232 209 134
-4.061657e+01 -9.997436e+00 1.638259e+01 37 39 29
-5.858206e+01 -1.100956e+01 1.828936e+01 209 199 181
-8.284132e+01 -1.550513e+01 3.224534e+01 109 102 58
-8.891814e+01 -1.469568e+01 3.100425e+01 197 177 134
-4.090978e+01 -1.071960e+01 1.907659e+01 250 233 204
-4.085372e+01 -1.072819e+01 1.907823e+01 250 233 204
-4.087936e+01 -9.948233e+00 1.621057e+01 132 124 113
-1.934668e+01 2.131144e+01 -6.723668e+01 119 113 59
-1.929737e+01 2.158496e+01 -6.732615e+01 110 105 66
-1.554079e+01 1.505717e+01 -6.113929e+01 112 126 92
-1.427069e+01 1.754486e+01 -6.391634e+01 174 177 135
-2.727509e+01 1.782641e+01 -6.723805e+01 212 230 132
-1.985999e+01 2.348047e+01 -6.677246e+01 255 247 213
-8.660259e+00 -2.962297e+00 3.417949e+00 58 57 56
-3.070969e+00 -6.444054e-01 5.017009e+00 49 50 52
-1.962388e+00 -2.472831e+00 1.990987e+00 55 63 85
-1.783099e+00 3.780563e-01 3.291918e+00 168 185 214
-1.952280e+00 -2.608603e+00 1.941335e+00 128 146 166
-2.075523e+00 -2.136530e+00 2.388706e+00 95 69 74
-2.234924e+00 -9.710346e-01 2.077748e+00 121 139 158
-1.636560e+00 4.397104e-01 2.893282e+00 70 85 115
-1.790615e+00 -2.274368e+00 1.589525e+00 188 208 220
-2.245413e+00 4.044428e-01 2.010515e+00 209 220 229
-1.682944e+00 -2.065540e+00 1.496346e+00 200 207 218
-1.682944e+00 -2.065540e+00 1.496346e+00 200 207 218
-1.682944e+00 -2.065540e+00 1.496346e+00 200 207 218
-1.748469e+00 -2.043523e+00 1.579645e+00 65 83 122
-1.971848e+00 -2.064667e+00 2.177869e+00 192 151 163
-1.749596e+00 -1.912183e+00 1.667432e+00 188 195 199
-1.966941e+00 -2.352456e+00 2.081749e+00 184 204 222
-1.763829e+00 -2.231722e+00 1.587180e+00 196 211 228
-2.236975e+00 4.570134e-01 1.970951e+00 186 205 220
-2.207383e+00 5.401178e-01 1.708286e+00 87 100 119
-1.808059e+00 -2.159221e+00 1.661646e+00 193 210 228
-2.634303e+01 1.435274e+01 -6.418274e+01 192 201 97
-2.863161e+01 1.513330e+01 -6.459305e+01 180 190 118
-2.903478e+01 1.538281e+01 -6.463090e+01 73 72 6
-3.028193e+01 1.549867e+01 -6.527155e+01 182 190 114
-3.169844e+01 1.574550e+01 -6.669788e+01 80 73 20
-9.029799e+00 -4.302406e+00 3.544691e+00 45 46 53
-9.122743e+00 -4.649586e+00 3.263972e+00 73 70 90
-9.367245e+00 -3.933210e+00 3.515947e+00 136 137 136
-9.372120e+00 -3.557581e+00 3.587021e+00 152 157 154
-9.002652e+00 -3.117715e+00 3.819190e+00 23 33 77
-9.898971e+00 -3.397184e+00 3.176929e+00 44 43 55
-9.584663e+00 -3.014764e+00 3.503324e+00 15 9 15
-1.192366e+01 -2.169131e+00 2.816613e+00 195 210 219
-1.196230e+01 -2.136169e+00 2.819457e+00 18 25 50
-8.813122e+00 -3.327890e+00 3.873026e+00 186 196 207
-9.741630e+00 -3.007034e+00 3.435268e+00 144 155 168
-9.741630e+00 -3.007034e+00 3.435268e+00 144 155 168
-7.701881e+00 -4.621565e+00 4.002543e+00 76 80 79
-1.183167e+01 -4.723994e+00 4.233867e-01 105 100 94
-8.359389e+00 -3.958977e+00 3.830994e+00 21 28 50
4.193745e+01 -4.401507e+00 -5.539809e+01 33 34 65
-7.689271e+00 -3.903488e+00 4.527007e+00 84 88 91
-8.770845e+00 -2.975861e+00 3.928395e+00 77 85 90
-2.255113e+01 -3.467648e+00 -2.667239e+00 182 183 187
-1.147671e+01 -2.892304e+00 2.406108e+00 100 108 113
-8.681087e+00 -4.488977e+00 3.543731e+00 217 214 206
-9.358999e+00 -3.255951e+00 3.747329e+00 97 101 113
-8.867288e+00 -3.020442e+00 3.608504e+00 76 69 65
-8.264959e+00 -4.278157e+00 3.918910e+00 149 143 136
-9.424094e+00 -3.682902e+00 3.596707e+00 178 171 168
-9.888874e+00 -3.128808e+00 3.450650e+00 138 129 121
-9.750452e+00 -2.898719e+00 3.607777e+00 155 152 149
-9.676503e+00 -2.851654e+00 3.649258e+00 152 152 146
-9.553305e+00 -2.791189e+00 3.721478e+00 152 150 146
-9.515385e+00 -2.779850e+00 3.767016e+00 152 148 144
-9.398212e+00 -4.626320e+00 3.227387e+00 164 157 143
-8.181952e+00 -3.819462e+00 4.099459e+00 152 154 152
-7.614739e+00 -3.796722e+00 4.411320e+00 127 117 109
-9.483790e+00 -3.663278e+00 3.615448e+00 209 203 192
-1.015184e+01 -3.480212e+00 3.271823e+00 145 140 135
-9.326840e+00 -3.530740e+00 3.733998e+00 171 170 164
-7.893513e+00 -3.001394e+00 4.490050e+00 64 64 54
-9.664047e+00 -2.774077e+00 3.710937e+00 158 154 152
-9.125735e+00 -2.745855e+00 3.956428e+00 152 149 141
-9.476169e+00 -2.705967e+00 3.808586e+00 164 163 156
-9.372226e+00 -2.689965e+00 3.880423e+00 167 159 156
-7.861786e+00 -2.755953e+00 4.451573e+00 73 72 68
-8.766215e+00 -4.683191e+00 3.597877e+00 53 49 43
-8.975670e+00 -4.014447e+00 3.733941e+00 167 159 149
-1.012985e+01 -3.885384e+00 3.139991e+00 145 138 129
-1.015361e+01 -3.758973e+00 3.174796e+00 154 148 137
-7.610604e+00 -3.942823e+00 4.372749e+00 117 109 102
-9.514573e+00 -3.624772e+00 3.616358e+00 235 229 218
-9.351039e+00 -3.480886e+00 3.695617e+00 177 174 167
-1.013504e+01 -3.399728e+00 3.284796e+00 154 147 143
-9.834465e+00 -2.921792e+00 3.570668e+00 98 91 82
-9.834465e+00 -2.921792e+00 3.570668e+00 98 91 82
-9.776468e+00 -2.909628e+00 3.558682e+00 156 150 139
-9.849531e+00 -2.897841e+00 3.602794e+00 162 158 154
-1.017575e+01 -2.139917e+00 -6.556830e-01 81 84 82
-6.050394e+00 -2.595215e+00 5.165827e+00 106 105 99
-6.050394e+00 -2.595215e+00 5.165827e+00 106 105 99
-8.499065e+00 -2.401114e+00 4.352317e+00 115 108 98
-4.429154e+00 -3.367740e+00 3.614381e+00 254 254 255
-9.379505e+00 -4.665320e+00 3.256782e+00 106 97 88
-8.293170e+00 -4.467919e+00 3.852080e+00 174 173 165
-8.195714e+00 -4.295903e+00 3.944473e+00 157 153 144
-8.121563e+00 -3.843527e+00 4.124127e+00 168 166 162
-8.121563e+00 -3.843527e+00 4.124127e+00 168 166 162
-8.280420e+00 -3.457534e+00 4.128954e+00 72 72 73
-8.484760e+00 -3.070714e+00 4.119952e+00 156 154 148
-8.523114e+00 -2.959440e+00 4.145485e+00 176 171 159
4.274077e+00 2.370529e+01 -8.001922e+01 230 222 201
2.431067e+00 -2.567935e+00 -1.875838e+01 64 67 74
7.190339e+00 2.248865e+01 -4.520621e+01 173 154 122
6.973882e+00 2.260843e+01 -4.516897e+01 245 228 192
-2.279349e+01 -3.481000e+00 -2.740756e+00 211 212 210
7.431551e+00 1.882934e+01 -4.679632e+01 146 124 110
-2.457338e+01 1.714454e+01 -6.718535e+01 255 246 205
-2.569491e+01 1.822740e+01 -6.872605e+01 230 248 138
-2.151031e+01 2.611775e+01 -6.662435e+01 225 219 183
-2.100456e+01 2.603810e+01 -6.647487e+01 255 246 215
-4.740612e+01 2.888356e+01 -1.046256e+02 99 77 57
-4.875364e+01 2.781079e+01 -9.937109e+01 225 224 214
-2.809742e+01 1.562476e+01 -6.456453e+01 112 102 42
-2.574193e+01 1.826831e+01 -6.893532e+01 118 131 37
-5.501827e-01 2.637595e+00 6.681919e+00 157 134 107
2.768274e+00 7.040647e+00 -9.632108e+00 212 150 144
-1.923482e+01 1.526619e+00 -1.094429e+01 14 14 14
-1.893646e+01 2.013067e+00 -1.116011e+01 126 127 121
-1.983570e+01 -6.464465e-01 -1.110423e+01 135 140 146
-2.368460e+01 -3.795493e-01 -1.140893e+01 67 70 75
-2.858238e+02 2.420978e+01 -1.321904e+02 107 59 72
-1.991832e+02 -2.635108e+00 -4.713489e+00 97 98 77
-2.948599e+02 1.552352e+01 -1.249915e+02 177 167 151
-1.389206e+02 -1.374348e+01 2.614344e+01 58 50 29
-2.850618e+02 1.863105e+01 -1.008542e+02 253 250 241
-2.907005e+02 -3.001754e+01 5.340422e+01 127 121 101
1.618911e+00 -3.656500e-01 5.436307e-01 174 186 200
-3.742122e+00 -2.032592e+00 4.022067e+00 197 213 240
-1.765207e+01 5.455132e-01 -1.180556e+01 152 154 152
-1.585888e+00 -1.997397e+00 3.403212e+00 254 254 254
4.922384e-01 -1.180246e+00 -7.142834e-01 149 125 122
-3.638329e+00 -2.965829e+00 4.628910e+00 202 207 206
-2.598443e+02 1.343205e+01 -1.004797e+02 136 137 139
-2.445688e+02 1.906437e+01 -1.018248e+02 255 255 254
-2.619855e+00 -3.293900e+00 4.123794e+00 231 240 245
-3.103111e+00 -1.514467e+00 4.382011e+00 251 251 249
4.694072e+01 -6.856753e-01 -3.250138e+00 238 238 233
4.011278e+01 -4.055203e+00 7.223148e+00 225 226 222
-7.495150e+00 -5.054415e+00 3.491497e+00 29 30 32
-1.287677e+00 -2.376907e+00 2.411877e+00 151 156 153
-3.662643e+00 -1.918305e+00 3.838176e+00 230 241 245
-4.259839e+01 7.565971e+00 -4.473777e+01 206 199 180
-8.417790e+01 -8.397709e+00 7.450961e+00 177 172 151
-8.709123e+01 -9.366285e+00 1.093460e+01 187 185 160
-9.991137e+00 1.127288e+00 2.016014e+00 102 140 160
-7.161163e+00 -4.964381e+00 4.064020e+00 108 112 114
4.382307e+01 -2.281410e+00 1.783630e+00 222 222 216
-6.940086e+00 -4.670779e+00 1.368254e+00 90 91 79
-2.254146e+01 -1.704044e+01 5.072851e+01 102 104 99
-3.481091e+00 -2.736157e+00 4.702123e+00 191 126 62
-8.612256e+01 -9.101936e+00 9.060028e+00 188 184 157
-8.160180e+01 -7.168821e+00 4.499730e+00 125 122 108
-8.543353e+01 -8.769089e+00 9.690686e+00 106 106 95
-8.595972e+01 -7.376297e+00 6.326943e+00 218 212 164
-2.508096e+02 1.394898e+01 -9.748902e+01 137 143 131
-2.487176e+02 1.771909e+01 -1.013898e+02 210 214 217
-2.533562e+02 1.756536e+01 -9.563571e+01 255 254 253
-2.414018e+02 2.273950e+01 -1.053811e+02 255 255 253
-2.486435e+02 2.158457e+01 -9.971718e+01 74 92 119
-8.515944e+01 -8.723991e+00 7.427578e+00 186 181 149
-2.346618e+02 7.328819e+00 -4.733336e+01 211 208 180
-2.587786e+02 2.149764e+01 -6.685886e+01 54 57 51
-2.437293e-01 -1.744950e+00 -4.378946e-01 18 22 36
-8.779723e+01 -8.824821e+00 1.126010e+01 96 94 76
-8.947218e+01 -9.309516e+00 1.289046e+01 179 169 129
-2.605808e+02 1.121557e+01 -9.373848e+01 93 96 89
-2.481683e+02 1.633792e+01 -1.033083e+02 250 255 232
-2.530558e+02 1.490751e+01 -9.754107e+01 179 179 181
-2.530558e+02 1.490751e+01 -9.754107e+01 179 179 181
-2.523172e+02 1.715383e+01 -9.783742e+01 223 223 221
-4.397887e+01 -1.105592e+01 6.083161e+01 46 55 28
-1.850927e+02 6.539160e+00 -1.230925e+01 22 26 11
-2.535424e+02 1.686888e+01 -9.688243e+01 179 179 185
-2.535424e+02 1.686888e+01 -9.688243e+01 179 179 185
-3.413089e+02 2.233942e+01 -1.203178e+02 247 248 246
-2.191052e+02 1.130507e+01 -3.789881e+01 187 186 176
-1.803406e+02 -2.235873e+00 4.975901e+01 161 157 76
-2.781151e+02 -2.316632e+01 1.008563e+02 119 117 79
-1.545632e+02 -9.296593e+00 4.972443e+01 124 125 74
-1.313637e+02 -4.540661e+00 3.489199e+01 126 132 71
-1.348019e+02 -6.704532e+00 4.010740e+01 127 132 81
-1.557237e+02 -4.874537e+00 4.428217e+01 162 161 101
-2.975773e+02 -8.989529e+00 9.559344e+01 42 33 28
-2.233251e+02 -1.746806e+00 6.419794e+01 100 97 35
-3.473470e+02 -1.390516e+01 1.149926e+02 129 117 86
-1.988954e+02 -5.776272e+00 6.031699e+01 159 148 109
-2.565170e+02 3.513466e-01 7.276997e+01 133 131 80
-2.039591e+02 -6.895764e+00 6.310662e+01 61 57 38
-1.598487e+02 -3.828573e+00 4.390067e+01 66 60 44
-1.598487e+02 -3.828573e+00 4.390067e+01 66 60 44
-1.932956e+02 -3.363616e+00 5.552171e+01 114 111 58
-2.129428e+02 -1.892868e+00 6.069916e+01 107 98 43
-2.129428e+02 -1.892868e+00 6.069916e+01 107 98 43
-1.582638e+02 -1.516237e+01 5.655835e+01 118 116 88
-1.899380e+02 -7.280932e+00 5.888015e+01 166 167 116
-2.719542e+02 -8.266646e+00 8.652800e+01 62 55 41
-1.617656e+02 -1.963919e+00 4.203202e+01 153 165 83
-4.453436e+02 -7.863231e+00 1.449026e+02 34 48 23
-2.058349e+02 3.830571e+00 5.133693e+01 39 49 26
-4.269573e+01 -7.355687e+00 1.732021e+01 214 213 210
-1.504547e+02 -1.482371e+01 5.536489e+01 114 112 93
-1.309895e+02 -6.170133e+00 3.756581e+01 86 77 72
-1.292713e+02 -5.806346e+00 3.623643e+01 131 122 105
-4.889287e+02 -2.164728e+01 1.646010e+02 78 77 43
-1.670231e+02 -3.986583e+00 4.685413e+01 99 95 56
-1.823060e+02 1.310324e+00 4.489016e+01 130 133 77
-1.978351e+02 1.081184e+00 5.105803e+01 144 137 88
-2.011993e+02 3.421889e+00 4.924523e+01 36 46 26
-1.967147e+02 4.768169e+00 4.762380e+01 91 112 53
-5.210917e+01 -9.227414e+00 2.341629e+01 228 230 218
-1.816488e+02 -1.808585e+01 6.645567e+01 99 90 83
-1.816488e+02 -1.808585e+01 6.645567e+01 99 90 83
-2.016894e+02 -1.647079e+01 7.168530e+01 116 109 97
-2.100457e+02 -1.608701e+01 7.403267e+01 112 113 62
-2.100457e+02 -1.608701e+01 7.403267e+01 112 113 62
-1.330079e+02 -3.481854e+00 3.145978e+01 115 104 84
-1.371381e+02 -4.021079e+00 3.554586e+01 97 98 53
-1.711524e+02 -2.909122e+00 4.678196e+01 99 105 53
-2.156095e+02 9.779157e-02 5.915197e+01 126 135 68
-2.113768e+02 -1.880867e+01 7.730221e+01 189 193 198
-1.235198e+02 -8.792205e+00 3.828534e+01 90 87 76
-2.867097e+02 -1.301291e+01 9.499861e+01 111 98 62
-1.852672e+02 -3.527488e+00 5.258458e+01 136 145 75
-1.715709e+02 -1.475376e+00 4.457195e+01 76 75 42
-1.402666e+01 -3.297292e+00 8.740467e+00 234 233 228
-9.905564e+00 -6.789827e+00 1.082549e+01 211 210 208
-9.541178e+00 -6.565953e+00 1.003407e+01 213 213 214
-1.025449e+01 -6.855063e+00 1.129509e+01 210 211 200
-1.026623e+01 -6.826998e+00 1.114458e+01 221 213 192
-9.528756e+00 -6.475123e+00 1.002193e+01 212 214 213
-1.014542e+01 -6.791158e+00 1.109312e+01 171 182 126
-9.706182e+00 -6.530139e+00 1.030582e+01 99 107 84
-9.955405e+00 -6.702759e+00 1.073097e+01 90 86 76
-9.479101e+00 -6.649769e+00 1.004529e+01 229 228 230
-9.997617e+00 -6.692143e+00 1.082978e+01 218 213 196
-1.000593e+01 -6.678930e+00 1.073971e+01 205 207 187
-1.000593e+01 -6.678930e+00 1.073971e+01 205 207 187
-1.393678e+00 -2.869194e+00 4.489931e+00 86 91 94
-3.889978e+00 -2.063232e+00 7.328203e+00 152 152 142
-1.573167e+02 -3.266797e+01 8.581036e+01 196 197 190
-2.106634e+02 -2.632452e+01 5.383033e+01 227 225 212
-1.036925e+02 -1.797347e+01 4.470246e+01 183 194 135
-3.836138e+01 -1.897073e+00 -1.563989e+01 145 144 140
-6.619437e+01 -2.245356e+01 6.442711e+01 55 58 54
-1.022741e+02 -1.904547e+01 4.624358e+01 60 59 56
-3.687745e+01 -1.021789e+00 -1.826513e+01 58 67 75
-1.357507e+02 -9.993505e+00 3.907656e+00 74 80 79
-2.102139e+02 -8.130976e+00 5.766514e+01 158 157 170
-3.445155e+00 -1.048000e+00 4.824078e+00 106 27 33
-2.151789e+00 -2.057226e+00 2.945888e+00 40 44 48
-2.107387e+00 -2.121078e+00 2.622716e+00 40 49 55
-2.081130e+00 -2.165816e+00 2.538818e+00 170 176 186
-1.450847e+01 -8.254191e+00 1.339513e+01 82 86 79
-2.501258e+01 -1.217116e+01 2.263842e+01 90 92 77
-2.513023e+01 -7.894212e-01 1.212705e+01 32 55 43
-2.548331e+01 2.779355e+01 -8.809090e+01 232 220 195
-2.595946e+01 2.859323e+01 -8.740505e+01 152 143 128
-2.595946e+01 2.859323e+01 -8.740505e+01 152 143 128
-1.612227e+01 2.750795e+01 -8.094184e+01 237 223 197
-1.191818e+01 -5.694847e-01 1.857016e+00 188 186 173
-1.066258e+01 -3.163212e+00 2.332134e+00 144 136 127
-1.093992e+01 -2.382181e+00 1.928727e+00 71 71 59
-1.201774e+01 -2.268792e+00 1.479538e+00 93 88 84
-1.254746e+01 -1.152329e+00 3.144606e+00 253 253 253
-2.291051e+01 -2.367831e+00 -2.552595e+00 211 213 208
7.859183e+01 1.025563e+01 -2.093541e+01 96 102 45
-2.104432e+01 -2.397265e+00 -1.334230e+00 155 163 165
-2.104432e+01 -2.397265e+00 -1.334230e+00 155 163 165
-2.188204e+01 -1.787602e+00 -1.788607e+00 75 75 75
-2.256895e+01 1.405768e+00 -1.594263e+00 255 255 255
-9.237642e+00 -3.667040e+00 3.278853e+00 205 205 206
6.658337e+01 3.409947e+00 -1.494849e+01 143 151 162
7.030691e+01 3.258915e+00 -1.419226e+01 135 148 156
6.119273e+01 4.694097e+00 -1.772706e+01 122 120 70
4.963705e+00 1.919138e+01 -4.423010e+01 100 98 83
-8.788378e+00 -4.251409e+00 3.351332e+00 190 190 186
-9.095713e+00 -4.099497e+00 3.154293e+00 181 185 185
-1.178545e+01 -3.465349e+00 2.278447e+00 34 33 37
6.039511e+01 7.183938e+00 -1.942459e+01 25 34 17
6.374994e+01 9.407223e+00 -2.121396e+01 48 49 35
5.152607e+01 1.002532e+01 -2.382515e+01 56 72 37
6.655364e+01 1.032723e+01 -2.277097e+01 145 149 80
6.078811e+00 1.641727e+01 -4.517627e+01 241 212 176
-2.754114e+01 5.709484e-01 -3.883600e+00 189 85 93
-1.702730e+01 -3.899285e-01 1.083442e+00 153 163 169
5.776397e+01 6.740861e+00 -2.046648e+01 128 132 73
7.061520e+01 7.021744e+00 -1.841076e+01 144 149 66
7.059242e+01 7.007280e+00 -1.854145e+01 144 149 66
7.413455e+01 8.908843e+00 -1.956282e+01 71 74 36
8.722771e+01 1.466519e+01 -3.411580e+01 111 107 66
8.412547e+01 1.483752e+01 -3.314403e+01 199 199 178
8.412547e+01 1.483752e+01 -3.314403e+01 199 199 178
-8.373107e+00 -4.797113e+00 3.240372e+00 186 185 189
-8.950540e+00 -4.246121e+00 3.246111e+00 53 54 56
-8.869456e+00 -4.259467e+00 3.172159e+00 53 54 56
-8.511567e+00 -3.927878e+00 3.553354e+00 200 201 196
-8.511567e+00 -3.927878e+00 3.553354e+00 200 201 196
-2.527841e+01 1.577032e+00 -2.938914e+00 63 67 104
4.946258e+01 4.555027e+00 -1.906652e+01 86 92 69
5.520130e+01 7.831151e+00 -2.225629e+01 68 71 39
6.673235e+01 7.455042e+00 -1.951491e+01 131 132 67
4.971400e+01 8.720303e+00 -2.472340e+01 121 124 74
6.537854e+01 8.301029e+00 -2.022412e+01 30 36 21
5.964036e+01 9.107766e+00 -2.221552e+01 72 68 34
8.703127e+01 9.577308e+00 -1.826472e+01 129 132 76
8.940877e+01 1.123154e+01 -1.972865e+01 127 121 111
-2.654294e+01 -7.122153e+00 6.803528e+00 30 31 35
-8.771932e+00 -3.572395e+00 3.564909e+00 207 205 201
-1.760567e+01 -1.658421e+00 4.373935e-01 222 228 226
-2.808002e+00 1.355981e+01 -4.653784e+01 83 81 29
5.416852e+01 6.213948e+00 -2.067664e+01 87 99 44
7.010953e+01 5.565669e+00 -1.695356e+01 83 82 43
5.856054e+01 6.692136e+00 -2.039748e+01 71 70 43
5.276212e+01 7.496018e+00 -2.249354e+01 155 145 86
5.276212e+01 7.496018e+00 -2.249354e+01 155 145 86
6.419276e+01 6.979526e+00 -1.928637e+01 135 143 70
6.550081e+01 7.226931e+00 -1.939929e+01 84 91 55
5.588692e+01 9.315465e+00 -1.629580e+01 109 114 72
7.497011e+01 1.574293e+01 -3.587400e+01 60 70 46
-9.047104e+00 -3.647719e+00 3.459820e+00 47 46 78
-1.754952e+01 -1.640213e+00 5.336419e-01 51 55 69
-8.812806e+00 -2.871760e+00 3.674070e+00 248 249 236
-2.629937e+00 1.350375e+01 -4.632111e+01 158 149 87
6.808290e+01 5.639088e+00 -1.727999e+01 78 86 39
4.936274e+01 7.260982e+00 -2.332674e+01 81 80 49
5.299043e+01 8.134208e+00 -2.322737e+01 68 57 38
5.905322e+01 7.379374e+00 -2.019240e+01 55 65 41
5.094731e+01 8.990028e+00 -2.467337e+01 100 102 63
6.584581e+01 8.131846e+00 -2.000617e+01 124 128 78
5.619475e+01 8.963531e+00 -2.262650e+01 131 124 76
8.411792e+01 8.297258e+00 -1.799751e+01 76 74 49
7.292194e+01 1.660829e+01 -4.106253e+01 189 186 175
7.774049e+01 1.601147e+01 -3.636119e+01 68 82 55
7.618461e+01 1.651155e+01 -3.699741e+01 172 174 152
-1.459766e+01 -3.472894e+00 -2.364522e+00 53 55 49
-2.116453e+01 -2.460402e+00 -1.548123e+00 48 51 61
-2.742211e+01 1.074797e-02 -4.114447e+00 197 219 222
6.501502e+01 3.145004e+00 -1.505693e+01 48 51 64
5.450193e+01 6.034687e+00 -2.051086e+01 90 85 45
5.351974e+01 6.384951e+00 -2.106997e+01 97 93 52
5.965295e+01 6.768680e+00 -1.992012e+01 40 32 24
6.620815e+01 7.274664e+00 -1.924780e+01 139 142 78
6.619715e+01 7.267922e+00 -1.931156e+01 139 142 78
5.366282e+01 8.446672e+00 -2.312733e+01 71 66 47
5.149729e+01 8.993634e+00 -2.305037e+01 90 104 68
8.246158e+01 8.211307e+00 -1.784535e+01 175 164 137
7.949644e+01 8.862595e+00 -1.884889e+01 79 77 32
6.438904e+01 9.746540e+00 -2.099981e+01 63 66 39
6.074405e+00 1.590208e+01 -4.536699e+01 233 214 188
5.937804e+00 1.592665e+01 -4.542867e+01 127 114 98
7.128824e+01 1.555393e+01 -3.829249e+01 27 30 20
7.796942e+01 1.489120e+01 -3.494200e+01 36 41 29
-2.737001e+01 -8.945768e+00 1.296485e+01 59 60 54
-2.360677e+01 -2.350289e+00 -2.871357e+00 138 139 142
-9.311311e+00 -3.614195e+00 3.230038e+00 149 149 151
-2.143223e+01 -1.349738e+00 -1.079585e+00 97 101 112
-2.143223e+01 -1.349738e+00 -1.079585e+00 97 101 112
-4.901065e+00 1.273505e+01 -4.580476e+01 84 76 30
9.538814e-02 1.279554e+01 -4.537280e+01 108 115 31
2.054608e+00 1.360938e+01 -4.605829e+01 113 106 49
7.932274e+01 1.429528e+01 -3.362849e+01 38 40 30
7.887948e+01 1.511614e+01 -3.411103e+01 25 38 16
7.887948e+01 1.511614e+01 -3.411103e+01 25 38 16
5.379206e+00 1.777258e+01 -4.439055e+01 148 131 114
4.108071e+01 1.560250e+01 -3.242753e+01 131 129 111
-1.105367e+00 1.930661e-02 2.109571e-01 157 160 165
-2.458414e+01 1.547895e+01 -6.536185e+01 210 192 103
-2.806421e+01 1.531084e+01 -6.390569e+01 156 158 65
-2.783281e+01 1.699945e+01 -6.645960e+01 237 227 124
-3.634272e+01 2.774882e+01 -9.877454e+01 224 212 166
-2.648642e+01 1.546076e+01 -6.593313e+01 251 209 141
-2.423369e+01 1.629227e+01 -6.662189e+01 165 153 67
-2.608993e+01 1.721303e+01 -6.754918e+01 218 192 115
-2.991551e+01 1.728291e+01 -6.751405e+01 86 84 40
-2.783232e+01 1.741082e+01 -6.676610e+01 91 64 23
-2.783232e+01 1.741082e+01 -6.676610e+01 91 64 23
-2.669048e+01 1.803782e+01 -6.737121e+01 219 232 136
-2.906875e+01 1.814672e+01 -6.809497e+01 68 61 20
-3.098558e+01 1.850692e+01 -6.909944e+01 69 67 37
-3.640500e+01 2.726543e+01 -9.797261e+01 107 95 40
-2.866476e+01 1.535045e+01 -6.488954e+01 71 66 23
-2.653097e+01 1.592682e+01 -6.575741e+01 211 215 105
-2.536061e+01 1.773115e+01 -6.862537e+01 250 217 150
-2.979201e+01 1.769052e+01 -6.783966e+01 80 68 22
-2.681745e+01 1.772363e+01 -6.706388e+01 101 104 25
-2.681745e+01 1.772363e+01 -6.706388e+01 101 104 25
-2.511734e+01 1.832116e+01 -6.872196e+01 142 103 54
-2.643297e+01 1.816809e+01 -6.779901e+01 199 216 87
-2.707181e+01 1.842587e+01 -6.788390e+01 106 104 38
-3.018056e+01 1.878836e+01 -6.889673e+01 154 142 83
-2.915700e+01 1.898764e+01 -6.878738e+01 114 98 27
-3.849193e+01 2.661553e+01 -9.795385e+01 77 69 28
-2.428326e+01 1.590315e+01 -6.604669e+01 150 132 56
-2.797944e+01 1.542412e+01 -6.430435e+01 193 200 110
-2.809242e+01 1.705504e+01 -6.621774e+01 189 195 87
-2.731561e+01 1.743843e+01 -6.664855e+01 171 169 87
-2.587453e+01 1.805158e+01 -6.862502e+01 93 80 7
-3.083580e+01 1.771328e+01 -6.827965e+01 76 75 19
-2.692631e+01 1.793370e+01 -6.721308e+01 214 229 110
-2.988860e+01 1.871811e+01 -6.851749e+01 114 113 50
-2.824487e+01 1.899613e+01 -6.894924e+01 166 190 73
-2.631658e+01 1.953861e+01 -7.044201e+01 96 82 33
-3.870344e+01 2.680332e+01 -9.787416e+01 151 160 66
-3.977257e+01 2.738176e+01 -9.948939e+01 75 82 10
-3.858057e+01 2.729251e+01 -9.843401e+01 84 101 27
-2.763543e+01 1.546132e+01 -6.463161e+01 122 123 26
-2.750974e+01 1.547663e+01 -6.453302e+01 219 222 119
-2.975377e+01 1.587585e+01 -6.518520e+01 96 94 22
-2.715972e+01 1.622463e+01 -6.536631e+01 118 125 26
-2.798223e+01 1.711842e+01 -6.630293e+01 140 131 46
-2.929302e+01 1.801119e+01 -6.770356e+01 190 211 95
-2.816756e+01 1.837254e+01 -6.765604e+01 81 83 10
-3.022384e+01 1.859322e+01 -6.838117e+01 227 205 146
-4.617813e+00 -3.684740e+00 8.984891e-04 11 11 11
-4.133102e+01 -2.213644e+01 7.421458e+01 32 31 25
-3.535766e+02 -9.320179e+01 2.047900e+02 32 32 28
-3.000170e+02 -6.055835e+01 1.933144e+02 65 77 94
-3.832102e+00 -1.135336e+00 -1.160918e+01 152 153 147
-6.193889e+01 -2.156832e+01 6.468854e+01 25 25 24
-2.416669e+02 -3.477596e+00 -2.606439e+01 150 147 119
-4.132402e+01 -1.701889e+01 4.819699e+01 41 48 46
-4.175976e+01 -2.325271e+01 7.282098e+01 56 55 53
-4.175976e+01 -2.325271e+01 7.282098e+01 56 55 53
-2.615083e+02 3.101520e+01 -2.236580e+01 163 155 152
-2.275393e+02 3.009324e+01 -8.857480e+00 220 229 243
-3.100451e+02 -3.661519e+00 -5.488295e+01 44 42 40
-3.100451e+02 -3.661519e+00 -5.488295e+01 44 42 40
-1.419725e+02 -1.151644e+01 2.452760e+01 192 194 181
-4.839207e+01 -1.982506e+00 -1.993370e+01 130 126 122
-3.527017e+00 -9.032669e-01 2.019473e+00 246 247 245
-5.426952e+01 -9.485600e+00 1.518012e+01 74 79 80
-2.263869e+02 -4.578425e+00 -3.883110e+01 37 36 35
-4.048436e+01 -1.962931e+01 7.492695e+01 26 30 17
-3.241019e+02 -7.371694e+01 2.106141e+02 20 33 34
-2.508130e+02 1.252326e+01 -2.396663e+01 151 143 116
-8.417332e+01 -1.520238e+01 3.106415e+01 103 112 74
-9.680972e+01 -1.199579e+01 1.942227e+01 227 224 200
-5.960936e+01 -1.997610e+01 6.664077e+01 67 73 39
-1.199898e+02 -1.517869e+01 3.719172e+01 53 55 34
-1.006087e+02 -1.558187e+01 4.622683e+01 141 137 104
-6.080460e+01 -1.642030e+01 6.638258e+01 174 169 140
-2.028633e+02 -2.651810e+00 -6.003570e+00 27 27 23
-4.062327e+01 -1.507111e+01 7.596743e+01 41 48 17
-2.513983e+02 8.635087e+00 -2.689545e+01 114 117 90
-2.835386e+02 2.588714e+01 -3.535505e+01 91 90 89
-4.088338e+01 -2.594962e+01 8.174668e+01 34 52 29
-4.088338e+01 -2.594962e+01 8.174668e+01 34 52 29
-9.381176e+01 -9.454588e+00 1.127183e+01 90 85 72
-1.299019e+02 -1.095733e+01 1.666284e+01 253 254 250
-2.381535e+02 -5.535898e+00 -3.350880e+01 252 223 194
-2.381535e+02 -5.535898e+00 -3.350880e+01 252 223 194
-1.391033e+02 -1.197512e+01 2.539561e+01 94 88 72
-3.072421e+02 -1.260883e+00 -5.305892e+01 60 57 52
-9.932201e+01 7.513994e-01 4.903185e+01 49 44 36
-1.586846e+02 -2.134285e+00 -4.614964e+01 163 164 161
-1.294705e+02 -1.113233e+01 1.614709e+01 167 158 175
-9.970946e+00 -3.667335e+00 3.247514e+00 143 152 155
-9.520762e+00 -3.270770e+00 3.570688e+00 180 190 202
-2.300054e+01 6.434805e-01 -2.193626e+00 209 227 244
-2.238002e+01 -3.030781e+00 -2.488241e+00 17 16 16
-2.260541e+01 -2.797684e+00 -2.419282e+00 178 187 192
-9.584788e+00 -3.492398e+00 3.650864e+00 178 186 191
-2.247303e+01 -2.502963e+00 -2.389474e+00 154 154 149
3.870069e+01 1.113602e+01 -2.912685e+01 66 70 36
3.862469e+01 1.090028e+01 -2.867180e+01 96 96 50
3.868696e+01 1.035791e+01 -2.838623e+01 50 54 26
3.884793e+01 1.059069e+01 -2.841778e+01 68 59 35
1.097742e+01 2.269938e+01 -7.532230e+01 232 221 199
1.086810e+01 2.374419e+01 -7.546996e+01 219 209 180
1.213932e+01 2.349050e+01 -7.419705e+01 228 217 187
4.256946e+00 2.490572e+01 -7.907198e+01 226 214 189
4.113904e+00 2.419145e+01 -7.845092e+01 123 110 92
4.113904e+00 2.419145e+01 -7.845092e+01 123 110 92
1.252793e+01 2.311192e+01 -7.431201e+01 248 239 214
4.196814e+00 2.381595e+01 -7.849014e+01 212 199 171
1.022561e+00 2.446467e+01 -8.228697e+01 206 186 161
4.178102e+00 2.370700e+01 -7.843693e+01 96 93 72
-9.332167e+00 -2.824371e+00 3.749856e+00 34 30 31
-6.033234e+00 -2.412252e+00 5.150054e+00 199 206 214
3.839796e+01 1.073705e+01 -2.884873e+01 198 207 154
3.920024e+01 1.089734e+01 -2.849028e+01 73 51 27
3.911122e+01 1.513600e+01 -3.082585e+01 86 78 68
-9.719939e+00 -2.867533e+00 3.628645e+00 164 160 157
-9.156623e+00 -2.830114e+00 3.814192e+00 40 31 32
-1.750922e+01 -1.580662e+00 5.377415e-01 174 170 165
-8.187919e+00 -3.581515e+00 4.196223e+00 173 164 154
-9.788511e+00 -2.911640e+00 3.583238e+00 166 162 151
5.785348e+00 3.844524e+00 -3.528653e+01 211 221 220
-9.321526e+00 -2.671406e+00 3.872412e+00 197 194 185
-9.106409e+00 -2.578411e+00 5.362949e+00 69 70 64
-8.994028e+00 -2.141291e+00 4.119975e+00 109 106 101
-8.951257e+00 -1.937856e+00 3.890827e+00 71 71 67
-5.954004e+00 -2.170502e+00 5.122965e+00 109 91 88
-2.272750e+01 -3.264174e+00 -2.862471e+00 18 18 17
-2.294273e+01 -3.504780e+00 -2.973315e+00 233 233 233
4.757693e+01 7.495706e+00 -2.104647e+01 115 119 53
4.094763e+01 2.018186e+01 -3.122674e+01 98 90 85
4.592549e+01 6.760974e+00 -2.154739e+01 88 83 49
4.630411e+01 7.362729e+00 -2.172085e+01 147 154 88
4.559579e+01 5.806086e+00 -2.012519e+01 145 136 80
4.534018e+01 5.849612e+00 -2.026994e+01 98 97 55
4.442422e+01 7.119385e+00 -2.230358e+01 119 123 63
4.856553e+01 6.675199e+00 -1.981133e+01 77 62 43
4.955797e+01 7.904883e+00 -2.113928e+01 85 74 55
-6.313390e+00 1.776608e+01 -6.456429e+01 214 193 135
-2.289629e+01 -3.431773e+00 -2.993923e+00 112 95 94
4.494182e+01 5.316578e+00 -1.960867e+01 95 94 48
4.476839e+01 5.710284e+00 -2.044066e+01 103 99 52
4.604725e+01 5.912785e+00 -1.989162e+01 97 88 48
4.507505e+01 7.392428e+00 -2.247828e+01 72 66 37
4.353468e+01 8.187213e+00 -2.496160e+01 157 147 85
4.353468e+01 8.187213e+00 -2.496160e+01 157 147 85
5.247133e+01 8.669209e+00 -2.087563e+01 79 69 37
3.814938e+01 1.017825e+01 -2.676400e+01 80 75 49
-2.236761e+01 -3.214848e+00 -2.743421e+00 221 219 203
-2.499914e+01 1.654258e+00 -3.265184e+00 103 110 138
4.455353e+01 5.027688e+00 -1.937221e+01 92 79 43
-6.594682e+00 1.591507e+01 -6.204633e+01 138 125 72
4.540406e+01 6.897633e+00 -2.190805e+01 87 85 46
4.710124e+01 6.609327e+00 -2.049650e+01 66 69 41
4.633911e+01 6.902777e+00 -2.152449e+01 151 150 86
4.759844e+01 6.991903e+00 -2.084027e+01 144 134 92
4.676594e+01 7.528304e+00 -2.153765e+01 79 80 41
5.050196e+01 7.447756e+00 -2.009873e+01 103 90 59
4.844558e+01 9.699312e+00 -2.401788e+01 138 144 73
4.818968e+01 1.018641e+01 -2.553922e+01 86 78 31
-2.681133e+01 8.059848e+00 -1.132830e+01 152 137 123
-1.566068e+02 -5.269907e+00 -1.597261e+01 66 68 67
-9.732249e+00 7.432614e-02 -5.359605e+00 13 13 13
-4.518976e+02 -4.055190e+01 5.244331e+01 144 161 151
-6.652857e+01 -7.025694e+00 -5.763476e-02 32 31 29
-6.140316e+01 7.559537e+00 -5.522738e+01 95 86 56
-6.961429e+01 -8.184332e+00 1.749829e+00 33 33 32
-6.782090e+01 -7.861219e+00 1.834267e+00 33 33 32
-7.133822e+01 -8.276661e+00 1.747558e+00 106 98 84
-3.342803e+01 1.940507e+00 -2.712192e+01 66 65 63
-1.326266e+02 -7.732703e+00 -2.883885e+00 158 139 111
-6.206756e+01 8.216200e+00 -5.629285e+01 216 197 162
-6.613724e+01 -8.898911e+00 6.017764e+00 198 155 111
-6.830178e+01 -7.820977e+00 1.656436e+00 58 46 44
-7.812068e+01 -9.277258e+00 4.245132e+00 204 196 174
-7.812068e+01 -9.277258e+00 4.245132e+00 204 196 174
-1.083774e+02 -1.983667e+01 4.572640e+01 190 183 140
-8.484083e+01 -1.542496e+01 3.356180e+01 44 49 35
-9.525252e+01 -1.005817e+01 9.559093e+00 177 157 116
-4.137270e+01 -9.023645e+00 1.214044e+01 25 25 26
-1.030004e+02 -1.392243e+01 2.417171e+01 149 135 104
-1.092446e+02 -1.394892e+01 2.585186e+01 161 152 86
-1.009013e+02 -1.228700e+01 1.886698e+01 114 102 78
-4.150555e+01 -8.882401e+00 1.225539e+01 121 113 93
-1.269407e+02 -1.116468e+01 1.558314e+01 254 255 253
-1.392628e+02 -1.387123e+01 2.565678e+01 125 106 79
-5.804138e+01 -1.025858e+01 1.482304e+01 105 103 83
-4.258928e+01 -8.759879e+00 1.149007e+01 33 32 26
-1.121202e+02 -1.425078e+01 2.711250e+01 92 71 44
-1.410814e+02 -1.790831e+01 3.807010e+01 39 54 34
-1.465706e+02 -5.764929e+00 -1.181342e+01 62 61 54
-6.792004e+01 -7.099132e+00 -4.995454e-01 48 43 39
-6.140468e+01 8.139255e+00 -5.565847e+01 205 182 152
-4.622959e+01 5.633898e+00 -4.504653e+01 124 121 110
-1.207635e+01 4.480036e+00 -4.577330e+00 172 189 204
-3.312117e+01 2.113510e+00 -2.901730e+01 199 182 156
-6.394136e+01 6.900318e+00 -5.331271e+01 214 190 156
-1.191366e+01 4.498884e+00 -4.683482e+00 176 185 192
-1.497512e+02 -3.838947e+00 -1.778713e+01 63 65 48
-1.927745e+01 1.414031e-02 -1.822063e+01 171 171 161
-1.127740e+01 2.506170e+00 -3.478906e+00 253 255 245
-2.846509e+01 1.447796e+00 -1.084096e+01 126 122 98
-1.185422e+01 4.436178e+00 -4.603423e+00 169 170 166
-1.283798e+01 2.029008e+00 -4.197557e+00 51 77 85
-8.582524e+01 -5.423723e+00 -1.162330e+00 216 183 119
-2.852623e+01 -7.112799e+00 4.019080e+00 157 144 117
-2.852623e+01 -7.112799e+00 4.019080e+00 157 144 117
-8.469734e+01 -5.431698e+00 -1.828201e+00 97 76 38
-8.538639e+01 -5.156380e+00 -1.850910e+00 199 171 108
-8.529734e+01 -4.712019e+00 -4.537972e+00 96 91 34
-9.532142e+01 -3.337289e+00 -1.393214e+01 102 100 80
-1.574227e+02 -5.080467e+00 -1.823873e+01 128 115 101
-2.924425e+01 -7.344027e+00 4.346446e+00 180 168 134
-2.823093e+01 -6.758360e+00 3.266300e+00 160 149 125
-8.420516e+01 -5.500823e+00 -1.432503e+00 119 96 43
-8.532267e+01 -4.482891e+00 -5.370674e+00 95 82 32
-8.849331e+01 -3.713631e+00 -8.693635e+00 102 85 43
-1.725317e+02 -2.616939e+00 -2.840798e+01 55 52 47
-2.971719e+01 -7.318630e+00 4.235384e+00 169 159 131
-3.003203e+01 -7.466937e+00 4.479768e+00 82 76 56
-3.073278e+01 -7.223212e+00 3.845731e+00 105 95 72
-3.310339e+01 -7.422497e+00 3.849571e+00 161 147 119
-3.373618e+01 -7.172217e+00 3.220555e+00 162 148 122
-1.257040e+01 4.517280e+00 -5.224969e+00 153 162 167
-8.424003e+01 -5.616601e+00 -1.124067e+00 100 66 21
-8.529311e+01 -4.318932e+00 -5.936051e+00 114 85 44
-8.657401e+01 -3.941084e+00 -7.954611e+00 209 118 104
-1.288273e+02 -6.745882e+00 -7.305167e+00 160 149 115
-1.500366e+02 -6.129932e+00 -1.026687e+01 136 141 58
-2.558879e+01 -6.719378e+00 3.587598e+00 93 92 77
-3.239286e+01 -7.457062e+00 4.059951e+00 157 142 121
-3.131452e+01 -6.863276e+00 2.925776e+00 67 58 36
-3.131452e+01 -6.863276e+00 2.925776e+00 67 58 36
-3.334067e+01 -6.900089e+00 2.672487e+00 165 152 128
-4.434603e+01 -7.493219e+00 2.215248e+00 111 97 73
-4.434603e+01 -7.493219e+00 2.215248e+00 111 97 73
-1.507726e+01 2.646094e+00 1.015669e+00 95 94 90
-2.039881e+02 -3.918529e+00 -2.661460e+01 116 107 54
-2.042962e+02 -4.146792e+00 -2.444574e+01 68 48 22
-8.326024e+01 -1.429155e+01 2.943656e+01 42 45 37
-1.082054e+02 -2.089888e+01 4.998233e+01 71 65 44
-1.092294e+02 -2.090389e+01 4.985976e+01 63 59 50
-8.393750e+01 -1.425454e+01 3.055166e+01 64 66 60
-8.651628e+01 -1.452541e+01 3.055941e+01 54 57 46
-6.676518e+01 -1.440223e+01 2.962103e+01 219 207 194
-6.676518e+01 -1.440223e+01 2.962103e+01 219 207 194
-8.127832e+01 -1.750765e+01 3.864302e+01 33 34 28
-8.274122e+01 -1.561732e+01 3.296687e+01 36 37 30
-8.317393e+01 -1.329501e+01 2.731920e+01 62 62 61
-1.110763e+02 -2.113956e+01 5.129339e+01 217 199 157
-8.362589e+01 -1.506821e+01 3.233945e+01 43 44 35
-4.660553e+01 -2.005564e+01 6.169768e+01 163 164 119
-4.853453e+01 -2.003901e+01 6.311522e+01 175 162 141
-1.833950e+02 9.051457e-01 4.249062e+01 151 159 88
-1.413547e+02 -2.890631e+00 3.220584e+01 132 130 84
