ply
format ascii 1.0
element vertex 922
property float x
property float y
property float z
property uchar diffuse_red
property uchar diffuse_green
property uchar diffuse_blue
end_header
-9.907106e+00 -3.055548e+00 1.965328e+00 67 68 68
-2.153200e+01 -2.831306e+00 -3.046817e+00 251 251 250
-2.085483e+01 -2.375205e+00 -2.659380e+00 43 44 46
-2.060259e+01 -1.539725e+00 -2.278241e+00 173 182 190
-2.224008e+01 -1.506659e+00 -3.027092e+00 26 26 30
-2.224008e+01 -1.506659e+00 -3.027092e+00 26 26 30
-2.109833e+01 -1.057289e+00 -2.329892e+00 213 221 225
-2.186250e+01 -4.804064e+00 4.973610e+01 77 67 78
-1.516793e+01 3.658082e-01 9.885971e-01 253 255 255
-3.783107e+01 3.578064e+01 -1.049111e+02 204 198 187
-2.250409e+01 -1.680946e+00 -3.176672e+00 252 251 249
-2.162210e+01 2.791298e+01 -7.007081e+01 94 90 81
-1.873045e+01 -2.752829e+00 -2.453909e+00 10 12 11
-6.550781e+00 -3.029572e+00 3.626402e+00 166 177 183
-6.654507e+00 -3.213358e+00 3.651641e+00 161 173 189
-6.738205e+00 -3.709336e+00 3.456230e+00 158 167 175
-7.170507e+00 -3.115104e+00 3.444291e+00 169 181 189
1.145675e+01 1.625055e+01 -5.296494e+01 250 247 236
1.137111e+01 1.713153e+01 -5.293602e+01 252 253 245
-6.542462e+00 -3.530107e+00 3.603947e+00 125 129 126
-6.328900e+00 -3.227510e+00 3.774413e+00 98 98 96
-6.919263e+00 -2.990709e+00 3.591190e+00 132 137 135
-6.919263e+00 -2.990709e+00 3.591190e+00 132 137 135
-6.197792e+00 -2.881467e+00 3.883880e+00 237 238 240
-6.566215e+00 -2.885610e+00 3.770741e+00 121 125 125
-2.234163e+01 -3.047483e+00 -3.258620e+00 129 122 116
1.468114e+01 1.384620e+01 -4.810990e+01 211 209 122
-6.191800e+00 -4.362870e+00 3.505809e+00 46 49 55
-5.574439e+00 -3.185571e+00 4.042111e+00 41 48 54
-2.158638e+01 -2.582382e+00 -3.017740e+00 205 206 208
-6.757458e+00 -2.248480e+00 3.789553e+00 186 199 211
1.663323e+01 1.346273e+01 -4.666603e+01 111 113 61
1.404778e+01 1.440126e+01 -4.925196e+01 101 85 54
1.532752e+01 1.092930e+01 -4.377159e+01 184 183 127
1.215131e+01 1.188799e+01 -4.629998e+01 206 197 101
1.670334e+01 1.257589e+01 -4.543992e+01 113 110 57
1.415193e+01 1.533625e+01 -5.056042e+01 248 247 141
-8.781440e+00 -1.616562e+00 3.333680e+00 187 207 212
-1.966074e+01 -5.677049e-01 -1.210356e+00 168 190 206
1.122179e+01 1.443064e+01 -5.022623e+01 139 145 80
1.136390e+01 1.170578e+01 -4.610780e+01 232 224 138
1.173676e+01 1.167896e+01 -4.592565e+01 151 136 38
1.365262e+01 1.434653e+01 -4.944299e+01 152 140 72
1.125911e+01 1.578754e+01 -5.274348e+01 245 228 179
1.023320e+01 1.608558e+01 -5.316524e+01 217 214 147
1.068543e+01 1.944141e+01 -5.229189e+01 236 214 164
1.072730e+01 2.066419e+01 -5.201770e+01 253 251 230
1.674389e+01 1.219341e+01 -4.500139e+01 244 228 137
-3.969610e+00 2.739816e+01 -8.574079e+01 253 251 237
1.057190e+01 2.058286e+01 -5.196397e+01 132 121 89
-6.499471e+00 -3.041854e+00 3.597991e+00 166 177 183
-2.157330e+01 -1.883286e+00 -2.694815e+00 179 190 200
2.857272e+01 2.452209e+01 -6.533688e+01 191 190 180
-1.589192e+01 1.267418e+00 5.839004e-01 166 202 238
2.309014e+01 1.239765e+01 -4.243719e+01 179 186 105
-6.740536e+00 -4.201060e+00 3.230449e+00 221 227 228
-9.548245e+00 8.496831e-01 2.832464e+00 215 234 251
2.237434e+01 9.713294e+00 -3.916380e+01 151 151 73
1.185714e+01 2.687722e+01 -7.554162e+01 199 196 183
1.184280e+01 2.686225e+01 -7.548110e+01 199 196 183
-7.081476e+00 -3.507491e+00 3.366723e+00 159 168 175
-6.903638e+00 -3.385441e+00 3.495858e+00 127 128 127
-2.188736e+01 -2.162985e+00 -2.986256e+00 180 189 193
-2.220780e+01 -2.064339e+00 -3.168310e+00 27 28 28
-2.190472e+01 -1.085920e+00 -2.769152e+00 19 19 25
2.363053e+01 1.156727e+01 -4.107098e+01 124 116 69
1.743453e+01 1.312773e+01 -4.587923e+01 204 210 124
-6.713727e+00 -3.433586e+00 3.553912e+00 162 169 181
-6.462738e+00 -3.354212e+00 3.679997e+00 162 170 181
-1.837711e+00 -3.417762e+00 3.635844e+00 45 49 51
-2.274607e+01 -2.630160e+00 -3.369148e+00 138 136 131
-6.892190e+00 -3.193990e+00 3.572524e+00 166 176 185
-2.422356e+01 -1.314817e+00 -3.809600e+00 107 116 118
-2.384588e+01 -1.221024e+00 -3.474593e+00 72 76 75
-2.163766e+01 -1.034922e+00 -2.589540e+00 253 254 251
2.092867e+01 9.303748e+00 -3.951004e+01 202 206 121
1.949425e+01 9.984529e+00 -4.091036e+01 122 131 88
2.053065e+01 1.104563e+01 -4.178561e+01 192 187 128
2.138832e+01 1.117631e+01 -4.163951e+01 158 174 85
2.315077e+01 1.136022e+01 -4.114132e+01 218 215 141
2.194551e+01 1.214395e+01 -4.267130e+01 119 127 78
1.442284e+01 1.326614e+01 -4.722398e+01 100 106 57
2.370890e+01 1.252147e+01 -4.214470e+01 200 198 118
2.370890e+01 1.252147e+01 -4.214470e+01 200 198 118
2.182437e+01 1.365314e+01 -4.483157e+01 188 186 116
-1.927963e+01 -4.052764e+00 -9.772724e-01 198 176 165
-9.887736e+00 -3.050363e+00 1.902359e+00 67 68 68
-2.201035e+01 -2.262679e+00 -3.061132e+00 174 183 187
-3.237891e+00 -1.499016e+00 5.108279e+00 187 171 189
2.138647e+01 9.363496e+00 -3.943663e+01 113 118 63
2.138647e+01 9.363496e+00 -3.943663e+01 113 118 63
2.336513e+01 1.042972e+01 -4.008961e+01 217 211 138
2.382582e+01 1.087620e+01 -4.081892e+01 77 63 54
2.262073e+01 1.105196e+01 -4.109432e+01 230 219 164
2.407768e+01 1.126615e+01 -4.061807e+01 89 91 57
2.270613e+01 1.176334e+01 -4.210276e+01 228 219 132
-2.660976e+01 3.321203e+01 -9.853698e+01 200 196 185
-1.446988e+01 3.652647e-01 1.250693e+00 80 105 134
2.257971e+01 9.157632e+00 -3.876226e+01 213 212 138
2.034659e+01 1.129759e+01 -4.222212e+01 211 207 135
2.102395e+01 1.139279e+01 -4.210393e+01 229 223 139
2.058380e+01 1.310460e+01 -4.455949e+01 232 236 138
1.246201e+01 1.436762e+01 -4.946773e+01 168 189 85
2.203148e+01 1.340787e+01 -4.453170e+01 218 219 115
2.346209e+01 1.341826e+01 -4.394807e+01 227 218 159
-1.558227e+01 4.190305e+00 -4.077583e-02 177 202 218
-5.875123e+00 -3.868826e+00 3.682780e+00 20 19 27
-7.327071e+00 -3.845061e+00 3.119562e+00 250 248 236
-2.001051e+01 -2.408684e+00 -2.119342e+00 105 106 106
-5.752845e+00 -2.852057e+00 3.984339e+00 27 31 47
-6.206205e+00 -2.328927e+00 3.950700e+00 28 29 36
-9.728130e+00 -1.516595e+00 2.875203e+00 231 240 240
1.787672e+01 1.040540e+01 -4.225175e+01 231 223 152
1.761699e+01 1.045656e+01 -4.239668e+01 212 208 138
1.669054e+01 1.256977e+01 -4.541697e+01 113 110 57
2.229209e+01 1.245950e+01 -4.276819e+01 220 215 138
2.317409e+01 1.259045e+01 -4.262970e+01 137 142 73
2.317409e+01 1.259045e+01 -4.262970e+01 137 142 73
2.002572e+01 1.336744e+01 -4.527539e+01 226 213 139
1.990086e+01 1.367166e+01 -4.559910e+01 112 121 60
2.229699e+01 1.361570e+01 -4.465251e+01 161 156 89
1.794880e+01 1.454672e+01 -4.767878e+01 110 105 63
1.416576e+01 1.534681e+01 -5.059656e+01 248 247 141
1.465316e+01 1.587206e+01 -5.194566e+01 201 200 123
1.154290e+01 1.687709e+01 -5.292526e+01 255 255 251
-2.058587e+01 2.584222e+01 -7.000832e+01 255 253 246
-6.194806e+00 -4.207192e+00 3.508778e+00 132 139 146
-6.194806e+00 -4.207192e+00 3.508778e+00 132 139 146
-2.138660e+01 -2.895282e+00 -2.960827e+00 208 213 211
-2.180814e+01 -2.808211e+00 -3.083565e+00 223 229 225
-1.778249e+01 -3.396834e+00 2.475720e+01 158 157 150
1.204235e+01 1.220106e+01 -4.662653e+01 152 127 66
1.121832e+01 1.394561e+01 -4.966223e+01 243 242 130
1.074953e+01 1.447572e+01 -5.064831e+01 233 232 131
1.723887e+01 1.377516e+01 -4.682037e+01 220 225 135
1.416532e+01 1.456162e+01 -4.913945e+01 236 223 101
1.397103e+01 1.477518e+01 -4.967596e+01 238 233 130
2.862288e+01 2.076619e+01 -6.650796e+01 159 166 131
-7.255588e+00 -4.000384e+00 3.093428e+00 146 144 144
-7.615774e+00 -3.534070e+00 3.026767e+00 199 197 184
-5.788195e+00 -2.839774e+00 3.884690e+00 67 76 86
-2.236389e+01 -1.616091e+00 -3.229881e+00 136 131 111
-2.210054e+01 -1.137058e+00 -2.943178e+00 203 196 170
-2.490648e+01 2.784675e+00 -4.093153e+00 249 254 251
-1.115783e+01 2.044483e+00 2.194903e+00 190 204 209
-1.599653e+01 4.048870e+00 -1.768796e-01 96 120 135
1.105296e+01 1.801950e+01 -5.256682e+01 255 255 223
-2.152045e+01 2.618135e+01 -7.075491e+01 95 90 84
-1.180427e+01 -8.675848e-01 5.533606e+00 189 210 224
-1.342936e+01 -5.118266e-01 1.497671e+00 194 210 222
-1.832484e+01 4.944216e-01 -1.496549e+00 164 187 211
-2.156620e+01 -1.880073e+00 -2.518476e+00 179 190 200
-2.150207e+01 1.398012e+00 -2.021589e+00 191 214 237
3.463701e+01 2.166535e+01 -6.168355e+01 234 232 219
-4.228663e+00 -3.029292e+00 4.726619e+00 171 183 190
-1.181307e+01 1.348844e+00 2.921552e+00 255 255 255
3.819804e+01 2.069125e+01 -5.998843e+01 135 139 138
2.319579e+01 1.106566e+01 -4.167433e+01 179 170 109
-2.865915e+01 3.090968e+01 -1.000344e+02 150 152 147
-3.448866e+01 3.270274e+01 -1.042672e+02 180 177 167
-6.491016e+00 -3.979176e+00 3.441000e+00 11 10 11
-1.997667e+01 -2.002143e+00 -2.007496e+00 65 69 68
-6.974455e+00 -2.394583e+00 3.618510e+00 8 12 11
-6.427612e+00 -2.374798e+00 3.814922e+00 14 14 19
2.374004e+01 1.091915e+01 -4.026208e+01 113 109 62
2.477924e+01 1.247136e+01 -4.211846e+01 211 202 139
-1.188309e+01 3.855385e+00 3.692399e-01 105 128 167
3.919188e+01 1.923308e+01 -5.602687e+01 221 219 205
3.944456e+01 2.018961e+01 -5.937479e+01 135 137 138
3.715117e+01 2.057297e+01 -6.133971e+01 219 215 203
-2.985353e+01 3.216872e+01 -1.012622e+02 246 243 232
3.562326e+01 2.154547e+01 -6.186633e+01 233 231 218
3.704682e+01 2.216779e+01 -6.084914e+01 214 213 195
3.394184e+01 2.416806e+01 -6.183305e+01 162 158 155
3.552885e+01 2.404763e+01 -6.094070e+01 148 152 151
-6.157082e+00 -4.109959e+00 3.621885e+00 221 225 223
-6.288866e+00 -3.759687e+00 3.522031e+00 151 158 164
-6.045079e+00 -3.433432e+00 3.800333e+00 209 215 219
-2.153521e+01 -1.855439e+00 -2.677949e+00 182 189 198
-8.859783e+00 -2.450010e+00 2.929760e+00 140 147 151
-2.224617e+01 -1.097182e+00 -2.930161e+00 254 255 254
-2.224735e+01 -1.096118e+00 -2.942470e+00 254 255 254
-1.119047e+01 1.933109e+00 2.117066e+00 75 92 113
2.692262e+01 8.750916e+00 -3.596332e+01 198 181 121
-7.044765e+00 -2.635038e+00 3.322780e+00 194 204 211
-2.034592e+01 -1.047724e+00 -1.835208e+00 74 80 83
2.528922e+01 9.029180e+00 -3.680081e+01 128 134 78
2.535994e+01 9.052862e+00 -3.691399e+01 128 134 78
2.091436e+01 1.039083e+01 -4.054461e+01 166 164 90
2.413476e+01 1.098426e+01 -3.976320e+01 188 194 93
1.330746e+01 1.264377e+01 -4.630404e+01 192 210 96
2.734220e+01 1.116150e+01 -3.863974e+01 202 190 120
1.089228e+01 1.691361e+01 -5.339327e+01 105 97 74
3.786132e+01 1.726310e+01 -5.319062e+01 183 189 102
-2.755420e+01 3.136992e+01 -1.006666e+02 229 226 211
-2.066418e+01 -8.089800e+00 1.369202e+01 132 128 120
-6.363614e+00 -4.253619e+00 3.423398e+00 140 151 159
-5.608542e+00 -3.863984e+00 3.895462e+00 31 32 42
-6.892646e+00 -3.194358e+00 3.573500e+00 166 176 185
-6.717147e+00 -2.984206e+00 3.672334e+00 168 178 187
-6.717147e+00 -2.984206e+00 3.672334e+00 168 178 187
-7.517155e+00 -2.529930e+00 3.370697e+00 159 159 156
-7.517155e+00 -2.529930e+00 3.370697e+00 159 159 156
-2.700252e+00 -1.436375e+00 5.133988e+00 255 255 252
-1.517065e+01 5.688611e-01 9.632866e-01 244 250 251
-1.220526e+01 1.095750e+00 3.210620e+00 179 193 201
2.493477e+01 7.701764e+00 -3.487528e+01 153 166 102
2.355840e+01 7.895044e+00 -3.584643e+01 142 140 90
2.492732e+01 8.475548e+00 -3.621730e+01 211 208 147
2.389695e+01 9.483134e+00 -3.818628e+01 202 199 120
1.829001e+01 1.086911e+01 -4.243613e+01 215 208 126
2.497808e+01 1.021496e+01 -3.873914e+01 198 204 108
-1.335646e+01 4.575323e+00 -5.792663e+00 190 193 154
1.413542e+01 1.388665e+01 -4.843429e+01 199 215 110
-4.049955e+01 2.813088e+01 -1.046254e+02 124 121 75
2.985006e+01 1.401394e+01 -4.251298e+01 199 199 111
3.934054e+01 1.849091e+01 -5.632423e+01 81 88 68
3.915773e+01 1.940249e+01 -5.935409e+01 212 213 192
-2.504205e+01 3.257603e+01 -9.766485e+01 201 199 188
1.054300e+01 2.056112e+01 -5.241509e+01 119 110 104
-2.568609e+01 3.569545e+01 -9.795739e+01 237 235 222
-2.175584e+01 -1.738726e+00 -2.714575e+00 182 193 197
-2.069652e+01 -1.585346e+00 -2.227054e+00 205 214 220
-6.756725e+00 -2.247167e+00 3.786595e+00 186 199 211
-1.997124e+01 9.694645e-01 -1.013697e+00 79 101 133
2.068350e+01 8.545922e+00 -3.814864e+01 210 212 133
1.762049e+01 9.432191e+00 -4.100577e+01 197 197 122
2.642210e+01 8.858656e+00 -3.634709e+01 133 131 62
2.488656e+01 9.493702e+00 -3.784089e+01 115 110 70
2.444591e+01 9.978088e+00 -3.867774e+01 106 111 70
-3.440987e+01 1.922515e+01 -7.591584e+01 86 92 56
2.690446e+01 1.027953e+01 -3.799543e+01 210 206 111
2.496524e+01 1.071771e+01 -3.924838e+01 86 74 43
2.711114e+01 1.054088e+01 -3.799219e+01 112 101 44
2.674426e+01 1.070284e+01 -3.809789e+01 194 198 107
2.674426e+01 1.070284e+01 -3.809789e+01 194 198 107
2.488391e+01 1.103172e+01 -3.950578e+01 176 168 93
1.765408e+01 1.222170e+01 -4.499222e+01 234 223 144
2.853500e+01 1.121516e+01 -3.820015e+01 187 177 99
-3.183361e+01 2.011701e+01 -7.413319e+01 72 73 53
-4.423713e+01 3.211442e+01 -1.127130e+02 182 178 166
-1.578970e+01 4.192713e+00 -8.780065e-02 176 203 221
3.971903e+01 1.906903e+01 -5.730597e+01 220 224 202
-7.345888e+00 -4.835401e+00 3.115319e+00 93 95 93
-9.911142e+00 -4.247812e+00 4.488953e-01 84 83 78
-2.143809e+01 -2.654143e+00 -3.092318e+00 19 25 21
-6.950278e+00 -2.533973e+00 3.583004e+00 24 30 45
2.248096e+01 7.890286e+00 -3.631327e+01 168 165 115
2.690262e+01 9.238713e+00 -3.614213e+01 146 150 91
2.217479e+01 9.956955e+00 -3.927835e+01 118 115 73
-3.404435e+01 1.879057e+01 -7.532370e+01 193 190 135
-3.934765e+01 2.018840e+01 -8.063281e+01 246 210 161
2.412508e+01 1.045518e+01 -3.920273e+01 187 180 110
2.744817e+01 1.015329e+01 -3.760155e+01 193 193 95
-4.099915e+01 2.086280e+01 -8.030004e+01 89 87 45
2.628011e+01 1.093035e+01 -3.855657e+01 204 207 124
2.633763e+01 1.095609e+01 -3.864827e+01 204 207 124
2.424656e+01 1.136843e+01 -4.028520e+01 211 216 127
-3.069382e+01 1.949647e+01 -7.224234e+01 138 128 103
2.718886e+01 1.164066e+01 -3.955244e+01 178 177 99
2.837752e+01 1.148072e+01 -3.830857e+01 106 87 41
2.043964e+01 1.304649e+01 -4.428636e+01 232 236 138
2.658553e+01 1.322694e+01 -4.179096e+01 211 194 124
2.540330e+01 1.386030e+01 -4.331576e+01 187 149 75
-1.552157e+01 4.051661e+00 1.812386e-02 60 73 86
-2.153929e+01 2.651136e+01 -7.107404e+01 99 92 84
-2.165591e+01 2.759150e+01 -7.109479e+01 109 101 86
-2.367363e+01 -6.573560e+00 7.486538e+00 168 169 163
-2.110534e+01 -3.688355e+00 -2.822631e+00 118 118 116
-2.274279e+01 -2.638389e+00 -3.337822e+00 144 142 137
-2.094046e+01 -2.503683e+00 -2.786932e+00 53 51 73
-6.104976e+00 -3.225004e+00 3.840328e+00 99 102 116
-1.995735e+01 -1.561850e+00 -1.909140e+00 75 81 81
-2.234700e+00 -1.499104e+00 4.944429e+00 254 254 253
-2.247590e+00 -7.430465e-01 5.017534e+00 107 107 142
-1.527567e+01 4.326044e-01 1.014859e+00 150 158 182
2.347298e+01 7.455398e+00 -3.498448e+01 224 229 231
2.451262e+01 7.379402e+00 -3.447526e+01 218 214 212
2.583920e+01 7.289406e+00 -3.356190e+01 134 124 113
2.545954e+01 7.355910e+00 -3.387074e+01 114 99 100
-1.114024e+01 1.794275e+00 2.250329e+00 62 76 126
2.079702e+01 9.932010e+00 -4.030057e+01 211 206 134
2.468114e+01 9.638350e+00 -3.796607e+01 190 186 102
1.223251e+01 1.133759e+01 -4.547796e+01 230 226 126
2.612830e+01 9.906939e+00 -3.744201e+01 129 129 72
1.670293e+01 1.134487e+01 -4.416076e+01 218 218 111
2.523054e+01 1.029059e+01 -3.860949e+01 154 154 84
1.834805e+01 1.125047e+01 -4.286544e+01 219 214 136
1.300308e+01 1.191823e+01 -4.578147e+01 210 214 130
2.858190e+01 1.028451e+01 -3.702604e+01 148 140 71
1.452938e+01 1.230251e+01 -4.601982e+01 205 187 133
2.530974e+01 1.091528e+01 -3.909165e+01 206 211 120
2.377699e+01 1.168437e+01 -4.074679e+01 174 185 95
1.404797e+01 1.355128e+01 -4.811923e+01 223 215 130
2.688876e+01 1.193567e+01 -3.993738e+01 177 170 101
1.418855e+01 1.400954e+01 -4.823341e+01 211 214 121
-4.070841e+01 2.857877e+01 -1.057039e+02 87 87 37
-4.361306e+01 2.997325e+01 -1.086582e+02 108 121 69
2.505034e+01 1.343291e+01 -4.283104e+01 219 188 97
-2.019274e+01 2.279920e+01 -7.038074e+01 255 249 246
-1.977020e+01 -8.922343e+00 1.690664e+01 83 85 84
-1.987445e+01 -8.551505e+00 1.549735e+01 173 170 158
-9.675443e+00 -2.786766e+00 2.454037e+00 48 53 56
-9.711620e+00 -1.573752e+00 2.874072e+00 219 230 224
-6.796170e+00 1.650813e+00 8.608755e-01 86 89 110
2.174991e+01 8.412053e+00 -3.705355e+01 128 143 69
2.294878e+01 9.006060e+00 -3.776429e+01 104 109 52
1.972261e+01 9.803331e+00 -4.049182e+01 190 185 130
1.953529e+01 9.898350e+00 -4.075861e+01 110 118 65
2.034913e+01 9.845775e+00 -4.019507e+01 112 103 46
2.370789e+01 9.635983e+00 -3.834803e+01 155 143 62
1.650031e+01 1.065082e+01 -4.285397e+01 221 215 135
-3.962242e+01 1.919518e+01 -7.902285e+01 122 104 74
2.575685e+01 9.687999e+00 -3.773803e+01 220 202 139
1.261776e+01 1.137862e+01 -4.491496e+01 176 158 108
1.383805e+01 1.153754e+01 -4.527684e+01 235 223 147
1.311991e+01 1.158257e+01 -4.515349e+01 234 229 149
2.802475e+01 9.826248e+00 -3.653666e+01 140 141 64
-4.080081e+01 2.018835e+01 -7.998074e+01 233 242 175
2.674588e+01 1.014035e+01 -3.744189e+01 209 201 111
2.602419e+01 1.045838e+01 -3.832565e+01 217 216 140
-4.042174e+01 2.068269e+01 -8.032755e+01 61 66 25
2.350283e+01 1.135420e+01 -4.088520e+01 92 79 50
2.315501e+01 1.144028e+01 -4.125289e+01 221 216 148
-3.253387e+01 1.968836e+01 -7.400369e+01 189 187 140
-3.253387e+01 1.968836e+01 -7.400369e+01 189 187 140
-3.277529e+01 2.001301e+01 -7.450438e+01 72 67 41
1.454899e+01 1.318562e+01 -4.710428e+01 111 112 70
1.646354e+01 1.305706e+01 -4.615115e+01 227 233 146
1.119594e+01 1.392486e+01 -4.960411e+01 243 242 130
-3.113141e+01 2.033931e+01 -7.350715e+01 55 55 29
2.807716e+01 1.167774e+01 -3.888191e+01 209 204 139
-3.001210e+01 2.032505e+01 -7.314803e+01 250 239 167
-3.001210e+01 2.032505e+01 -7.314803e+01 250 239 167
-4.390814e+01 2.858852e+01 -1.068678e+02 194 173 112
2.599466e+01 1.256207e+01 -4.098828e+01 196 199 120
2.586213e+01 1.290037e+01 -4.152674e+01 148 141 66
2.579672e+01 1.286485e+01 -4.141652e+01 148 141 66
2.856023e+01 1.276392e+01 -4.020897e+01 134 122 52
2.089392e+01 1.424283e+01 -4.618467e+01 222 214 134
2.089392e+01 1.424283e+01 -4.618467e+01 222 214 134
-4.439442e+01 3.034328e+01 -1.088932e+02 214 210 184
-3.918491e+01 2.947937e+01 -1.052916e+02 234 229 198
2.807847e+01 1.334536e+01 -4.151219e+01 154 146 81
-1.539757e+01 4.001607e+00 3.324371e-02 113 130 140
-2.022276e+01 -8.861961e+00 1.671452e+01 71 80 41
-2.013721e+01 -8.552276e+00 1.550876e+01 94 95 90
-2.686593e+01 -4.283791e+00 -1.540839e+00 72 75 73
-7.194720e+00 -4.057761e+00 3.114037e+00 139 137 137
-7.580772e+00 -2.970566e+00 3.178300e+00 231 225 212
-7.188298e+00 -2.902979e+00 3.401030e+00 108 122 133
-5.749143e+00 -2.946383e+00 4.048766e+00 183 196 204
-5.783716e+00 -2.835541e+00 3.876079e+00 67 76 86
-1.566031e+01 -9.035356e-01 4.761313e-01 33 39 68
-3.253366e+00 -1.421775e+00 5.174190e+00 255 245 114
2.144826e+01 7.840124e+00 -3.633277e+01 161 154 130
2.460944e+01 7.394595e+00 -3.398919e+01 154 148 115
-4.046427e+01 1.776105e+01 -7.768189e+01 197 187 132
2.384365e+01 9.108765e+00 -3.749968e+01 152 160 75
1.656475e+01 1.013411e+01 -4.231097e+01 157 150 79
1.783127e+01 1.059090e+01 -4.242388e+01 101 91 52
-3.907092e+01 1.958696e+01 -8.013389e+01 242 233 177
1.649297e+01 1.102502e+01 -4.349559e+01 103 99 41
1.650095e+01 1.103138e+01 -4.351134e+01 103 99 41
-3.917619e+01 1.998661e+01 -8.035616e+01 254 227 175
-3.304746e+01 1.827732e+01 -7.271106e+01 219 214 165
-3.304746e+01 1.827732e+01 -7.271106e+01 219 214 165
2.127253e+01 1.081461e+01 -4.112088e+01 160 165 78
-3.383321e+01 1.929377e+01 -7.524073e+01 226 230 172
2.715271e+01 1.042079e+01 -3.791708e+01 96 87 30
-3.156984e+01 1.872706e+01 -7.234770e+01 73 76 37
-3.156984e+01 1.872706e+01 -7.234770e+01 73 76 37
2.448230e+01 1.087748e+01 -3.974096e+01 111 110 45
1.719928e+01 1.201090e+01 -4.465330e+01 234 227 111
1.256555e+01 1.261215e+01 -4.716298e+01 92 83 41
-3.162981e+01 1.916694e+01 -7.298793e+01 71 69 31
-3.315010e+01 1.986592e+01 -7.483998e+01 66 59 27
1.571722e+01 1.283721e+01 -4.634277e+01 152 138 83
1.571722e+01 1.283721e+01 -4.634277e+01 152 138 83
-3.190419e+01 1.994506e+01 -7.401587e+01 55 63 26
1.625807e+01 1.302571e+01 -4.621516e+01 117 117 49
1.625807e+01 1.302571e+01 -4.621516e+01 117 117 49
-2.996820e+01 1.963981e+01 -7.205946e+01 233 243 146
1.996516e+01 1.267234e+01 -4.427058e+01 141 143 55
-3.041858e+01 2.010546e+01 -7.287770e+01 244 251 184
-3.050430e+01 2.060526e+01 -7.340411e+01 224 232 179
-3.855682e+01 2.814413e+01 -1.040541e+02 216 235 160
-4.446504e+01 2.928645e+01 -1.081583e+02 80 100 26
-4.098901e+01 2.871701e+01 -1.056662e+02 212 241 125
-2.823711e+01 2.126059e+01 -7.465338e+01 128 123 71
-4.150438e+01 2.938783e+01 -1.072533e+02 77 89 21
2.331990e+01 1.363519e+01 -4.432410e+01 223 212 149
-3.755368e+01 2.870224e+01 -1.046342e+02 251 245 231
1.973310e+01 1.423484e+01 -4.656386e+01 141 145 57
2.866949e+01 2.077816e+01 -6.618913e+01 244 248 220
-2.043920e+01 2.605884e+01 -7.016031e+01 234 227 215
-2.043920e+01 2.605884e+01 -7.016031e+01 234 227 215
-2.176880e+01 2.724160e+01 -7.095856e+01 93 83 82
-9.166770e+00 -3.614637e+00 2.962514e+00 25 25 28
-9.285842e+00 -2.356621e+00 2.867638e+00 132 147 157
-2.044389e+01 2.545651e+00 -2.161734e+00 93 113 124
-2.044389e+01 2.545651e+00 -2.161734e+00 93 113 124
1.418645e+01 1.349920e+01 -4.664543e+01 212 212 127
-4.929435e+00 -1.674957e+00 4.877112e+00 255 255 253
-7.009648e+00 -3.815500e+00 3.254301e+00 10 11 11
-6.004665e+00 -3.755829e+00 3.647934e+00 13 13 12
-6.661216e+00 -3.215222e+00 3.723824e+00 161 173 189
-7.325929e+00 -2.781543e+00 3.343248e+00 10 10 10
1.722008e+01 1.079973e+01 -4.293945e+01 210 207 108
-1.246475e+01 -3.897161e+00 -9.382037e-01 105 103 85
-7.614816e+00 -2.978113e+00 3.233445e+00 212 209 200
-2.071276e+01 -1.845736e+00 -2.463399e+00 21 21 20
-1.685818e+01 -9.239795e+00 1.840644e+01 79 75 79
-7.081165e+00 -3.507171e+00 3.365607e+00 159 168 175
-2.203138e+01 -8.685298e-01 -2.627836e+00 183 188 191
-2.064670e+01 2.314864e+00 -1.759388e+00 83 101 116
2.168073e+01 8.449863e+00 -3.727693e+01 156 155 101
-1.754903e+01 -8.514338e+00 1.559710e+01 108 110 95
-1.754903e+01 -8.514338e+00 1.559710e+01 108 110 95
-7.295593e+00 -3.898731e+00 3.126574e+00 226 226 218
-7.079946e+00 -3.274953e+00 3.475174e+00 167 176 181
-5.574502e+00 -3.183621e+00 4.047504e+00 41 48 54
-6.419882e+00 -3.048826e+00 3.724466e+00 166 173 186
-2.081736e+01 2.235452e+00 -1.725642e+00 183 211 234
1.441248e+01 1.012820e+01 -4.308116e+01 239 234 157
2.159481e+01 9.470226e+00 -3.917405e+01 197 196 106
1.213375e+01 1.112943e+01 -4.502567e+01 228 228 118
-2.070553e+01 -1.579845e+00 -2.292908e+00 205 214 220
-6.157059e+00 -2.435188e+00 4.004108e+00 193 208 217
2.030195e+01 7.127791e+00 -3.559505e+01 212 216 214
1.952648e+01 7.238614e+00 -3.610119e+01 211 213 210
1.818456e+01 8.173520e+00 -3.835629e+01 230 231 228
1.305986e+01 1.016687e+01 -4.369488e+01 221 215 133
1.122532e+01 1.111022e+01 -4.522602e+01 224 215 119
1.122781e+01 1.111849e+01 -4.524912e+01 224 215 119
1.973655e+01 1.082209e+01 -4.168963e+01 133 141 71
1.425377e+01 1.285048e+01 -4.703196e+01 227 211 148
2.686944e+01 1.118650e+01 -3.873087e+01 123 130 57
1.490678e+01 1.320188e+01 -4.712991e+01 213 224 126
-2.191452e+01 -3.540667e+00 -3.397565e+00 20 25 28
-6.519047e+00 -3.703750e+00 3.593599e+00 151 159 166
1.926913e+01 7.287722e+00 -3.644528e+01 207 215 209
-1.114202e+01 1.825453e+00 2.220587e+00 62 76 122
1.694371e+01 9.636385e+00 -4.168814e+01 220 212 151
1.612889e+01 9.664602e+00 -4.164609e+01 225 223 146
1.385017e+01 1.044643e+01 -4.386323e+01 230 220 159
1.832108e+01 1.042725e+01 -4.200006e+01 117 118 62
7.368088e+00 1.273128e+01 -4.945559e+01 218 216 130
7.368088e+00 1.273128e+01 -4.945559e+01 218 216 130
2.040944e+01 1.132037e+01 -4.237516e+01 211 207 135
2.025820e+01 1.153213e+01 -4.263114e+01 166 169 82
2.025820e+01 1.153213e+01 -4.263114e+01 166 169 82
1.776791e+01 1.211993e+01 -4.441176e+01 158 146 86
-6.098993e+00 -3.219074e+00 3.820016e+00 99 102 116
-3.272725e+01 -1.263108e+00 -1.394265e+01 57 67 77
-7.062788e+00 -2.944000e+00 3.534698e+00 172 180 184
-2.199287e+01 -1.953354e+00 -2.893911e+00 211 212 217
-1.587488e+00 -2.482362e+00 4.884682e+00 156 97 87
1.162859e+01 6.012038e-01 -1.423383e+01 53 50 57
-1.526788e+01 4.348734e-01 9.725382e-01 150 158 182
-2.390071e+01 2.534501e+00 -3.248068e+00 55 81 110
1.778972e+01 8.269935e+00 -3.897877e+01 233 235 235
1.650329e+01 8.791074e+00 -3.991137e+01 130 115 82
1.559928e+01 9.143189e+00 -4.096927e+01 252 226 180
1.269740e+01 1.031969e+01 -4.390026e+01 222 216 120
1.581497e+01 1.027068e+01 -4.244069e+01 234 221 152
8.562401e+00 1.155443e+01 -4.689675e+01 232 237 145
1.994281e+01 1.038299e+01 -4.132166e+01 220 221 141
1.544109e+01 1.202424e+01 -4.519022e+01 147 155 79
1.177079e+01 1.263332e+01 -4.749542e+01 227 229 110
1.177079e+01 1.263332e+01 -4.749542e+01 227 229 110
2.839089e+01 1.050653e+01 -3.745296e+01 204 187 109
-1.554728e+01 1.756526e+01 -6.637883e+01 117 128 121
9.427619e+00 1.356041e+01 -4.948722e+01 144 136 73
1.159220e+01 1.346882e+01 -4.862370e+01 189 190 106
2.210820e+01 1.212818e+01 -4.246555e+01 122 126 69
2.842413e+01 2.098081e+01 -6.646970e+01 249 250 244
2.842413e+01 2.098081e+01 -6.646970e+01 249 250 244
-5.179408e+00 -4.109729e+00 4.009309e+00 79 80 75
-6.243108e+00 -2.798777e+00 3.877149e+00 161 158 165
-2.148332e+01 -1.181370e+00 -2.571662e+00 251 253 251
-6.765120e+00 1.564314e+00 9.051779e-01 203 211 214
1.891252e+01 7.958908e+00 -3.732951e+01 227 229 231
1.688513e+01 8.884512e+00 -4.002429e+01 135 125 87
1.198833e+01 1.032560e+01 -4.403143e+01 218 226 120
1.200658e+01 1.033901e+01 -4.408838e+01 218 226 120
2.512471e+01 9.137056e+00 -3.722527e+01 211 195 129
2.039628e+01 9.866272e+00 -4.030160e+01 112 103 46
2.039628e+01 9.866272e+00 -4.030160e+01 112 103 46
1.127113e+01 1.150013e+01 -4.594802e+01 152 141 84
1.127113e+01 1.150013e+01 -4.594802e+01 152 141 84
1.766992e+01 1.095319e+01 -4.301673e+01 224 218 120
1.173804e+01 1.168102e+01 -4.593049e+01 151 136 38
2.550881e+01 1.008216e+01 -3.815327e+01 201 194 122
1.187814e+01 1.193790e+01 -4.628752e+01 223 231 125
7.644292e+00 1.282437e+01 -4.911542e+01 142 162 64
1.238599e+01 1.243368e+01 -4.695814e+01 183 161 103
7.358100e+00 1.321866e+01 -4.986518e+01 237 220 152
1.116432e+01 1.283034e+01 -4.790882e+01 222 228 114
6.855482e+00 1.345797e+01 -5.060534e+01 251 251 142
1.862879e+01 1.207125e+01 -4.404360e+01 208 186 118
9.384175e+00 1.322929e+01 -4.895824e+01 220 221 115
9.384175e+00 1.322929e+01 -4.895824e+01 220 221 115
1.232323e+01 1.321689e+01 -4.763912e+01 207 216 107
-7.244354e+00 -3.830839e+00 3.065626e+00 98 92 111
-2.126232e+01 -2.949203e+00 -2.880394e+00 213 215 219
-7.580668e+00 -3.543354e+00 3.110571e+00 149 149 140
-2.095988e+01 -2.715067e+00 -2.709573e+00 253 254 255
-7.448173e+00 -2.894380e+00 3.145580e+00 156 151 144
-7.152286e+00 -2.393174e+00 3.428075e+00 152 139 131
-2.137593e+01 -1.300026e+00 -2.475570e+00 157 168 177
-2.210477e+01 -1.023259e+00 -2.964294e+00 103 96 82
-1.952786e+01 1.943673e+00 -1.115471e+00 185 200 214
1.787970e+01 7.256908e+00 -3.733125e+01 144 126 113
1.899467e+01 8.154122e+00 -3.780939e+01 167 165 129
1.762763e+01 8.630654e+00 -3.951125e+01 112 111 74
9.405291e+00 1.078503e+01 -4.585504e+01 156 150 86
1.916692e+01 9.869438e+00 -4.110186e+01 218 219 148
9.256167e+00 1.100674e+01 -4.583191e+01 114 112 49
7.675539e+00 1.137692e+01 -4.724464e+01 96 89 48
1.547156e+01 1.080142e+01 -4.319299e+01 142 144 73
7.786172e+00 1.206957e+01 -4.815305e+01 132 137 60
1.546016e+01 1.183102e+01 -4.518619e+01 239 234 159
1.546016e+01 1.183102e+01 -4.518619e+01 239 234 159
1.123217e+01 1.267928e+01 -4.747390e+01 219 224 128
-1.517024e+01 1.688601e+01 -6.517873e+01 198 211 180
2.743685e+01 1.051848e+01 -3.764026e+01 159 154 74
1.695958e+01 1.214858e+01 -4.485558e+01 233 227 122
8.073136e+00 1.337917e+01 -4.973626e+01 112 110 40
8.280587e+00 1.355230e+01 -5.001186e+01 224 216 137
2.330409e+01 1.192818e+01 -4.197191e+01 149 149 86
1.542260e+01 1.314104e+01 -4.678920e+01 136 132 60
1.614536e+01 1.340761e+01 -4.718850e+01 241 239 154
-2.073552e+01 2.456383e+01 -7.029841e+01 245 238 222
-8.853095e+00 -3.596227e+00 1.991036e+00 24 28 33
-1.453801e+01 3.161329e+00 -2.252640e+00 50 68 87
-1.961955e+01 -4.696100e+00 -1.880775e-01 113 116 114
-2.693583e+01 6.078180e-01 -5.260293e+00 150 190 224
-7.002754e+00 -3.823740e+00 3.230797e+00 13 15 14
-6.011251e+00 -3.758785e+00 3.653053e+00 13 13 12
-9.983863e+00 -2.597552e+00 2.460538e+00 154 167 177
-7.348920e+00 -2.769315e+00 3.380980e+00 11 13 10
-2.452304e+01 -3.170427e+00 -5.427058e+00 116 117 109
-2.185258e+01 -2.507306e+00 -3.095079e+00 19 22 21
-6.323495e+00 -3.753205e+00 3.562460e+00 147 156 167
-2.188694e+01 -2.166845e+00 -2.992500e+00 170 181 188
-6.724251e+00 -3.699879e+00 3.441387e+00 156 166 175
-2.059103e+01 -2.232644e+00 -2.365219e+00 176 185 190
-6.008460e+00 -3.448877e+00 3.732781e+00 199 204 207
-1.543163e+01 -2.093764e+00 -1.766983e-03 132 148 163
3.521477e+01 9.907716e+00 -3.413814e+01 193 197 86
2.979938e+01 1.204762e+01 -3.870282e+01 126 131 63
2.979938e+01 1.204762e+01 -3.870282e+01 126 131 63
-2.124944e+01 -2.038684e+00 -2.581887e+00 152 157 173
-2.131872e+01 -1.635873e+00 -2.526130e+00 142 147 152
-2.169976e+01 -1.557361e+00 -2.671718e+00 148 153 158
-2.113818e+01 -1.491791e+00 -2.386889e+00 254 254 255
-6.565748e+00 -2.885746e+00 3.770721e+00 117 125 124
-2.242183e+01 -8.967373e-01 -2.790677e+00 85 85 85
-6.013040e+00 -2.228557e+00 4.234181e+00 30 34 40
3.387336e+01 1.038031e+01 -3.485485e+01 204 203 98
3.271764e+01 1.082228e+01 -3.664204e+01 143 155 67
-5.730868e+00 -3.126079e+00 3.943978e+00 17 17 16
-5.878627e+00 -2.490150e+00 4.114816e+00 60 68 74
3.040777e+01 7.178824e+00 -3.159558e+01 89 94 65
3.023192e+01 8.376081e+00 -3.362508e+01 202 199 135
3.082713e+01 8.707771e+00 -3.375653e+01 104 113 63
3.082713e+01 8.707771e+00 -3.375653e+01 104 113 63
2.126362e+01 1.111387e+01 -4.144701e+01 148 163 77
2.995312e+01 9.920870e+00 -3.576062e+01 200 214 100
2.422890e+01 1.099846e+01 -3.989794e+01 174 180 76
3.592063e+01 9.696340e+00 -3.357447e+01 203 207 97
2.930261e+01 1.125303e+01 -3.802397e+01 203 184 117
3.198534e+01 1.098032e+01 -3.673954e+01 201 203 103
-2.143420e+01 -2.319204e+00 -2.761456e+00 174 182 188
-2.143420e+01 -2.319204e+00 -2.761456e+00 174 182 188
-1.501746e+01 4.637254e-01 8.567024e-01 129 142 159
3.096583e+01 6.468730e+00 -3.019960e+01 211 216 219
2.511165e+01 9.573098e+00 -3.755867e+01 212 204 123
2.628920e+01 9.571085e+00 -3.738538e+01 192 191 119
2.962907e+01 9.441420e+00 -3.536033e+01 104 105 44
2.446320e+01 1.035482e+01 -3.912482e+01 239 224 180
2.552192e+01 1.147004e+01 -3.970490e+01 199 192 104
-6.861498e+00 -2.201164e+00 3.737576e+00 27 30 29
-1.576335e+01 -9.571309e-01 5.050301e-01 204 216 224
-2.661018e+01 7.630122e-01 -4.712240e+00 110 130 155
2.589935e+01 7.606985e+00 -3.388522e+01 184 193 108
3.169190e+01 6.867052e+00 -3.076000e+01 89 82 53
2.993528e+01 7.445534e+00 -3.208068e+01 118 120 81
2.793943e+01 9.315180e+00 -3.603841e+01 123 128 66
2.943743e+01 9.588128e+00 -3.557784e+01 117 127 75
2.943743e+01 9.588128e+00 -3.557784e+01 117 127 75
2.506886e+01 1.075084e+01 -3.940578e+01 79 64 37
2.640165e+01 1.064624e+01 -3.845184e+01 101 107 62
3.385816e+01 9.928750e+00 -3.435269e+01 120 120 53
3.468595e+01 9.968760e+00 -3.409991e+01 210 216 93
3.512550e+01 9.960998e+00 -3.384879e+01 215 214 96
3.572306e+01 1.011323e+01 -3.386128e+01 120 120 65
2.580753e+01 1.216603e+01 -4.109503e+01 126 145 57
-1.585095e+01 5.720674e+00 -8.430432e+00 182 207 163
3.026593e+01 1.166594e+01 -3.787717e+01 139 134 79
2.203456e+01 1.340939e+01 -4.453957e+01 211 212 111
-3.325964e+00 -1.764752e+00 5.114202e+00 200 220 247
-3.317904e+00 -1.767050e+00 5.104801e+00 200 220 247
2.811681e+01 8.847588e+00 -3.540670e+01 119 112 73
3.087153e+01 8.518933e+00 -3.334658e+01 192 204 132
2.792722e+01 9.042078e+00 -3.555874e+01 110 108 56
2.937192e+01 9.030491e+00 -3.486880e+01 198 201 110
2.116961e+01 1.060902e+01 -4.077754e+01 188 194 104
1.363940e+01 1.211328e+01 -4.609298e+01 221 210 130
3.127111e+01 9.085628e+00 -3.400204e+01 203 215 135
3.383928e+01 9.023559e+00 -3.314721e+01 131 120 78
2.850550e+01 1.026492e+01 -3.693123e+01 147 140 82
2.848578e+01 1.025997e+01 -3.690483e+01 147 140 82
2.539139e+01 1.092759e+01 -3.922184e+01 199 202 110
3.180278e+01 1.012301e+01 -3.531046e+01 206 211 117
3.567946e+01 9.613534e+00 -3.315488e+01 204 203 96
2.873715e+01 1.079392e+01 -3.762886e+01 147 131 55
2.863599e+01 1.076128e+01 -3.749267e+01 147 131 55
1.233266e+01 1.482841e+01 -5.057316e+01 229 218 124
-2.153142e+01 -3.667645e+00 -2.981502e+00 119 119 114
-6.630768e+00 -3.542656e+00 3.592821e+00 19 27 53
-1.478429e+01 -2.307157e+00 4.932762e-01 49 58 66
-7.522984e+00 -2.941476e+00 3.185432e+00 84 79 91
-2.224241e+01 -1.103883e+00 -2.870766e+00 255 254 253
-1.566113e+01 -9.079190e-01 4.789015e-01 27 39 54
-1.446027e+01 4.529586e-01 1.304609e+00 223 241 243
2.951808e+01 6.623177e+00 -3.081590e+01 210 215 217
3.064955e+01 6.677188e+00 -3.118861e+01 209 214 215
3.053742e+01 6.760071e+00 -3.082640e+01 145 132 108
2.622174e+01 8.195708e+00 -3.492869e+01 198 210 127
2.917206e+01 8.633872e+00 -3.481600e+01 128 123 60
-2.477664e+01 1.836751e+01 -7.104532e+01 233 216 167
2.844050e+01 8.958636e+00 -3.538001e+01 225 207 138
3.231203e+01 8.438144e+00 -3.295773e+01 134 131 78
2.739670e+01 9.511282e+00 -3.641395e+01 95 96 48
1.813050e+01 1.136278e+01 -4.342915e+01 215 213 100
3.460262e+01 9.539071e+00 -3.371525e+01 141 145 49
3.556754e+01 9.711780e+00 -3.341101e+01 205 207 95
3.349314e+01 1.033730e+01 -3.515336e+01 126 122 51
3.349314e+01 1.033730e+01 -3.515336e+01 126 122 51
3.436496e+01 1.028718e+01 -3.463976e+01 132 121 73
3.497346e+01 1.031819e+01 -3.447356e+01 110 109 48
2.692415e+01 1.168158e+01 -3.955668e+01 112 117 44
3.447622e+01 1.045390e+01 -3.466937e+01 179 176 106
2.418486e+01 1.243516e+01 -4.158099e+01 211 205 127
2.419350e+01 1.243778e+01 -4.159434e+01 211 205 127
2.679604e+01 1.210356e+01 -4.011950e+01 131 120 62
3.123925e+01 1.147077e+01 -3.764741e+01 134 120 74
1.911861e+01 1.400480e+01 -4.654349e+01 233 222 151
-2.167255e+01 2.678345e+01 -7.049004e+01 76 72 61
-2.211323e+01 -2.703538e+00 -3.243486e+00 189 190 199
-7.346751e+00 -3.914753e+00 3.085895e+00 153 147 145
-7.174032e+00 -3.377900e+00 3.226851e+00 92 95 94
-2.093989e+01 -1.787625e+00 -2.416949e+00 142 142 133
-2.129769e+01 -1.726455e+00 -2.559647e+00 50 55 82
-2.231020e+01 2.718524e-01 -2.327593e+00 160 179 177
-1.517817e+01 4.568919e-01 9.423212e-01 235 245 253
-1.512411e+01 4.836043e-01 9.656887e-01 69 78 95
-1.070612e+01 9.895047e-01 2.809993e+00 169 176 176
2.966356e+01 5.953015e+00 -3.047391e+01 183 190 182
-1.107503e+01 1.885349e+00 2.210520e+00 232 244 252
2.948451e+01 7.276604e+00 -3.200148e+01 240 220 171
2.948451e+01 7.276604e+00 -3.200148e+01 240 220 171
2.067438e+01 9.704978e+00 -3.999521e+01 179 189 112
-2.500896e+01 1.831319e+01 -7.124761e+01 236 224 174
2.443022e+01 1.045817e+01 -3.936912e+01 217 204 154
2.415679e+01 1.066192e+01 -3.951155e+01 203 218 121
2.799327e+01 1.003043e+01 -3.688448e+01 215 214 117
2.799327e+01 1.003043e+01 -3.688448e+01 215 214 117
2.797727e+01 1.011911e+01 -3.713990e+01 202 198 105
1.232791e+01 1.279779e+01 -4.743482e+01 234 217 137
2.506449e+01 1.088151e+01 -3.942592e+01 92 88 24
2.506449e+01 1.088151e+01 -3.942592e+01 92 88 24
-5.771844e+00 -2.981192e+00 4.041053e+00 170 184 191
2.745807e+01 2.098477e+01 -6.701992e+01 246 248 235
-2.146178e+01 1.622643e+01 -6.724990e+01 218 227 186
-1.528505e+01 -1.816198e+00 -6.694946e+00 159 169 168
-6.350703e+00 -2.925890e+00 4.272853e+00 235 239 244
-7.285104e+00 -3.067867e+00 3.197419e+00 157 165 171
-9.089562e+00 1.460175e+00 1.838269e+00 162 169 165
2.183512e+01 1.364802e+01 -4.486831e+01 188 186 116
1.856782e+01 1.531715e+01 -4.909715e+01 237 233 136
1.118653e+01 1.405183e+01 -4.999538e+01 239 238 118
8.914389e+00 1.615681e+01 -5.425174e+01 228 228 137
4.955672e+00 1.454956e+01 -5.286296e+01 230 237 130
9.305726e+00 1.401492e+01 -5.044510e+01 230 225 118
2.027597e+01 1.364041e+01 -4.556402e+01 171 174 82
2.027597e+01 1.364041e+01 -4.556402e+01 171 174 82
1.682244e+01 1.421118e+01 -4.779372e+01 232 228 148
9.757987e+00 1.531199e+01 -5.224387e+01 162 157 92
-2.170289e+00 -7.309723e-01 4.865475e+00 107 107 142
1.973810e+01 1.370855e+01 -4.591943e+01 144 139 78
1.167336e+01 1.501554e+01 -5.128784e+01 213 203 121
2.496838e+01 1.319870e+01 -4.274392e+01 174 154 85
1.467642e+01 1.470812e+01 -4.921492e+01 229 222 116
1.755634e+01 1.426697e+01 -4.723653e+01 205 208 107
1.094653e+01 1.749393e+01 -5.257527e+01 246 225 174
-4.938481e+00 -3.324050e+00 4.247177e+00 84 83 82
-8.750531e+00 1.410410e+00 1.624843e+00 43 47 50
5.996661e+00 1.394153e+01 -5.165177e+01 212 213 106
9.522776e+00 1.435447e+01 -5.054807e+01 141 126 72
2.354448e+01 1.298173e+01 -4.342619e+01 183 190 96
2.335817e+01 1.304749e+01 -4.350550e+01 140 144 68
9.565436e+00 1.484186e+01 -5.123278e+01 244 241 141
6.133430e+00 1.572205e+01 -5.448665e+01 243 233 161
2.254806e+01 1.349302e+01 -4.457854e+01 141 156 60
1.005606e+01 1.569733e+01 -5.284477e+01 222 225 148
9.587465e+00 1.694888e+01 -5.606556e+01 108 117 56
9.587465e+00 1.694888e+01 -5.606556e+01 108 117 56
1.083939e+01 1.632687e+01 -5.298051e+01 122 117 79
-6.047195e+00 -4.146961e+00 3.583029e+00 134 146 158
8.844525e+00 1.377084e+01 -5.019669e+01 223 223 121
9.022029e+00 1.388857e+01 -5.020610e+01 188 166 87
9.022855e+00 1.388927e+01 -5.021258e+01 188 166 87
8.932955e+00 1.497352e+01 -5.191047e+01 195 179 97
2.035780e+01 1.350438e+01 -4.518459e+01 232 219 144
1.189074e+01 1.524375e+01 -5.153429e+01 144 123 69
2.336678e+01 1.365730e+01 -4.442849e+01 223 212 149
2.417104e+01 1.383545e+01 -4.449215e+01 130 122 79
2.417104e+01 1.383545e+01 -4.449215e+01 130 122 79
2.289932e+01 1.432069e+01 -4.578044e+01 232 220 157
1.075873e+01 1.605155e+01 -5.301032e+01 243 228 178
-7.115613e+00 -2.679178e+00 3.634289e+00 180 190 202
3.599709e+01 1.102894e+01 -3.493811e+01 123 118 77
3.727140e+01 1.223444e+01 -3.628652e+01 197 191 95
2.212377e+01 1.332230e+01 -4.471873e+01 201 203 89
2.212377e+01 1.332230e+01 -4.471873e+01 201 203 89
3.646251e+01 1.076147e+01 -3.480087e+01 176 177 89
3.646251e+01 1.076147e+01 -3.480087e+01 176 177 89
3.277726e+01 1.182278e+01 -3.737507e+01 180 179 83
3.524383e+01 1.152598e+01 -3.563599e+01 137 139 87
3.249176e+01 1.206695e+01 -3.782497e+01 199 191 108
-2.661320e+01 3.319091e+01 -9.846065e+01 188 189 176
1.087052e+01 2.155808e+01 -5.205523e+01 245 237 216
1.078212e+01 2.242128e+01 -5.167214e+01 254 249 228
1.042383e+01 2.267061e+01 -5.195193e+01 94 95 84
1.076678e+01 2.342069e+01 -5.143258e+01 254 251 228
3.584243e+01 1.030279e+01 -3.435078e+01 128 123 67
3.683981e+01 1.046204e+01 -3.413266e+01 174 168 84
3.329480e+01 1.190617e+01 -3.737860e+01 142 136 89
3.556367e+01 1.225417e+01 -3.709700e+01 182 177 86
3.579800e+01 1.106571e+01 -3.504306e+01 115 103 54
3.441397e+01 1.212176e+01 -3.720521e+01 208 209 132
3.399132e+01 1.272660e+01 -3.861516e+01 214 210 123
3.611382e+01 1.247029e+01 -3.704571e+01 130 128 71
2.557662e+01 2.139750e+01 -6.881488e+01 249 247 238
4.125604e+00 1.378124e+01 -5.241766e+01 125 150 123
3.528841e+00 1.449171e+01 -5.362406e+01 152 172 147
3.371493e+01 1.114735e+01 -3.649524e+01 184 183 111
3.591472e+01 1.109075e+01 -3.517419e+01 114 102 53
3.609444e+01 1.134602e+01 -3.522304e+01 171 159 98
3.707023e+01 1.127594e+01 -3.470783e+01 129 118 62
3.185757e+01 1.226677e+01 -3.837119e+01 158 137 72
3.185757e+01 1.226677e+01 -3.837119e+01 158 137 72
2.493619e+01 1.383666e+01 -4.373715e+01 138 138 78
3.689455e+01 1.167392e+01 -3.532611e+01 173 176 103
3.399863e+01 1.230612e+01 -3.769824e+01 192 190 126
3.317835e+01 1.241654e+01 -3.811419e+01 104 96 52
3.317835e+01 1.241654e+01 -3.811419e+01 104 96 52
3.617948e+01 1.248528e+01 -3.711377e+01 127 125 66
1.097296e+01 1.828398e+01 -5.256648e+01 242 229 198
2.584680e+00 1.588182e+01 -5.637855e+01 183 204 165
1.085887e+01 1.449839e+01 -5.090424e+01 222 222 126
3.532436e+01 1.041601e+01 -3.438490e+01 210 209 108
3.350819e+01 1.154401e+01 -3.736789e+01 212 201 140
1.472704e+01 1.475461e+01 -4.940244e+01 231 221 117
3.245306e+01 1.184071e+01 -3.743182e+01 189 191 91
2.506595e+01 1.316004e+01 -4.221314e+01 92 83 41
2.519028e+01 1.319868e+01 -4.240358e+01 92 83 41
3.660209e+01 1.137098e+01 -3.490900e+01 124 119 74
1.842456e+01 1.494389e+01 -4.829347e+01 238 233 150
3.081414e+01 1.317216e+01 -4.018123e+01 155 143 64
1.421334e+01 1.165303e+01 -4.512915e+01 146 142 72
1.215105e+01 1.420460e+01 -4.952029e+01 110 119 46
1.344760e+01 1.445870e+01 -4.959714e+01 161 160 70
-4.132120e+00 -3.079269e+00 4.571359e+00 156 171 178
-4.132120e+00 -3.079269e+00 4.571359e+00 156 171 178
-3.589060e+00 -8.473634e-01 5.168851e+00 253 253 253
-6.003246e+00 -3.755386e+00 3.645924e+00 13 13 13
-4.969973e+00 -3.308058e+00 4.252384e+00 72 77 73
-6.750295e+00 -4.186174e+00 3.289700e+00 228 232 227
-6.030507e+00 -3.400769e+00 3.715840e+00 230 232 235
-2.886526e+00 -8.981615e-01 4.987195e+00 162 161 169
-2.886526e+00 -8.981615e-01 4.987195e+00 162 161 169
-6.330082e+00 -3.227850e+00 3.776633e+00 93 93 90
-1.590639e+00 -2.477986e+00 4.907382e+00 164 94 70
-6.657023e+00 -4.147028e+00 3.175452e+00 86 79 92
-6.062909e+00 -4.043829e+00 3.551533e+00 54 59 91
-5.691091e+00 -3.524344e+00 3.809317e+00 31 40 66
-6.075592e+00 -2.803526e+00 3.808015e+00 21 28 79
-2.207554e+00 -1.607340e+00 5.231195e+00 184 189 205
-5.455923e-01 -1.117227e+00 3.313922e+00 65 67 86
-7.377549e+00 2.123169e+00 -4.836445e-01 86 86 93
-6.087338e+00 -3.902460e+00 3.479497e+00 13 18 47
-2.272836e+00 -1.118046e+00 5.264195e+00 213 213 223
-6.817219e+00 1.610027e+00 1.037297e+00 85 90 110
-6.738524e+00 -4.177463e+00 3.175633e+00 235 238 233
-6.121339e+00 -4.098902e+00 3.530685e+00 243 248 249
-6.054682e+00 -3.972420e+00 3.461081e+00 232 233 233
-6.848452e+00 -3.004749e+00 3.620886e+00 3 2 16
-1.648713e+00 -2.898662e+00 4.691458e+00 180 190 189
-4.665648e+00 -1.928306e+00 4.915872e+00 111 121 152
-2.312115e+00 -7.309948e-01 4.968827e+00 61 70 112
9.569010e+00 2.407161e+01 -7.658493e+01 249 247 235
8.470782e+00 2.459029e+01 -7.800890e+01 166 167 161
8.470782e+00 2.459029e+01 -7.800890e+01 166 167 161
1.397532e+00 2.783151e+01 -8.167331e+01 198 197 185
-6.044251e+00 -3.402665e+00 3.800828e+00 209 215 219
-4.706807e+01 3.336488e+01 -1.114958e+02 255 254 255
-5.035981e+01 3.313689e+01 -1.072419e+02 188 185 158
6.755975e+00 2.528746e+01 -7.900979e+01 173 174 168
-4.715865e+01 3.501314e+01 -1.103204e+02 255 255 251
-4.781799e+01 3.808336e+01 -1.079600e+02 123 101 99
-5.195837e+01 3.652183e+01 -1.012179e+02 226 208 171
-5.638564e+01 2.721900e+01 -9.723612e+01 85 77 60
-5.698683e+01 2.750842e+01 -9.669270e+01 224 209 157
6.307553e+00 2.451257e+01 -7.928624e+01 246 243 234
-5.280133e+01 3.416183e+01 -1.014075e+02 215 190 127
-5.280133e+01 3.416183e+01 -1.014075e+02 215 190 127
-5.098444e+01 3.548865e+01 -1.049801e+02 255 255 255
1.831074e+01 1.088483e+01 -4.248749e+01 215 208 126
-5.678917e+01 2.863928e+01 -9.671585e+01 221 198 154
-5.256744e+01 3.073497e+01 -1.028039e+02 186 160 132
-5.196481e+01 3.123355e+01 -1.038405e+02 238 217 188
-5.713056e+01 2.982499e+01 -9.584815e+01 131 117 95
-5.219840e+01 3.347411e+01 -1.027516e+02 136 117 100
-4.794930e+01 3.636784e+01 -1.085300e+02 123 105 90
-2.701286e+01 3.404184e+01 -9.950382e+01 246 244 231
-9.676175e+00 -3.064553e+00 1.960015e+00 60 60 59
1.246049e+01 9.773836e+00 -4.303648e+01 162 164 92
1.163509e+01 9.859047e+00 -4.296017e+01 149 168 83
-4.801186e+01 2.164800e+01 -8.318324e+01 182 165 108
1.445212e+01 1.420440e+01 -4.792249e+01 112 110 55
-4.847960e+01 2.951636e+01 -1.069087e+02 251 237 207
-4.863471e+01 3.126192e+01 -1.086752e+02 126 104 98
-4.863471e+01 3.126192e+01 -1.086752e+02 126 104 98
1.043971e+01 1.732256e+01 -5.304938e+01 251 252 246
-4.763067e+01 3.302284e+01 -1.091412e+02 127 102 96
-4.871260e+01 3.294043e+01 -1.076927e+02 254 225 193
-5.172442e+01 3.343143e+01 -1.032963e+02 249 223 196
-3.909027e+01 3.445465e+01 -1.058020e+02 191 187 175
-3.909027e+01 3.445465e+01 -1.058020e+02 191 187 175
-4.910831e+01 3.580966e+01 -1.061646e+02 231 202 178
-4.838462e+01 3.644831e+01 -1.079765e+02 243 229 201
-4.764261e+01 3.938162e+01 -1.085521e+02 138 123 124
-4.714149e+01 4.014690e+01 -1.084803e+02 254 255 252
1.650101e+01 9.317495e+00 -4.103754e+01 119 120 71
9.179363e+00 1.094881e+01 -4.565163e+01 117 112 51
7.136020e+00 1.220786e+01 -4.825418e+01 167 168 92
9.513132e+00 1.319621e+01 -4.902399e+01 214 213 131
8.584464e+00 1.403072e+01 -5.034747e+01 222 221 111
1.681715e+01 1.420844e+01 -4.777677e+01 232 228 148
2.824660e+01 1.295850e+01 -4.068673e+01 160 139 90
-5.190427e+01 2.956834e+01 -1.037346e+02 128 117 97
-5.190427e+01 2.956834e+01 -1.037346e+02 128 117 97
2.962264e+01 2.078444e+01 -6.580295e+01 249 249 239
-4.808724e+01 3.311979e+01 -1.088149e+02 246 230 201
-4.818212e+01 3.397869e+01 -1.091298e+02 212 191 165
-4.684964e+01 3.415965e+01 -1.094999e+02 255 255 251
-5.240142e+01 3.378541e+01 -1.017427e+02 232 212 169
-5.330155e+01 3.584020e+01 -1.019383e+02 218 207 141
-5.222351e+01 3.613055e+01 -1.007007e+02 213 196 161
-4.761332e+01 4.010962e+01 -1.083063e+02 159 141 139
-3.323564e+00 -1.082336e+00 5.094625e+00 254 253 246
-4.720974e+01 1.811931e+01 -7.710282e+01 253 224 159
1.524203e+01 1.059307e+01 -4.337519e+01 208 211 118
-5.332104e+01 2.120415e+01 -8.361466e+01 248 212 139
1.226151e+01 1.211569e+01 -4.624332e+01 153 125 83
1.671004e+01 1.195750e+01 -4.471112e+01 178 177 68
1.186111e+01 1.256424e+01 -4.710067e+01 234 228 117
-5.239438e+01 2.232774e+01 -8.515264e+01 177 202 118
-5.239438e+01 2.232774e+01 -8.515264e+01 177 202 118
2.386188e+01 1.231290e+01 -4.170073e+01 106 100 46
2.979852e+01 1.248823e+01 -3.945952e+01 210 189 119
-5.107578e+01 2.927597e+01 -1.040552e+02 99 101 92
-4.930553e+01 3.013087e+01 -1.068778e+02 110 99 84
-4.951229e+01 3.067995e+01 -1.069555e+02 114 102 93
-4.951229e+01 3.067995e+01 -1.069555e+02 114 102 93
-5.589032e+01 2.885280e+01 -9.776206e+01 200 183 124
-5.594971e+01 2.948322e+01 -9.764727e+01 230 212 151
-5.109782e+01 3.141551e+01 -1.042696e+02 233 236 239
-4.662343e+01 3.436656e+01 -1.104044e+02 201 198 181
-4.920328e+01 3.354405e+01 -1.064826e+02 128 108 94
-4.920328e+01 3.354405e+01 -1.064826e+02 128 108 94
-5.006869e+01 3.349433e+01 -1.053521e+02 228 222 193
-4.660247e+01 3.548452e+01 -1.102717e+02 204 199 189
-5.304658e+01 3.395563e+01 -1.039707e+02 172 139 115
-5.271254e+01 3.325970e+01 -1.007897e+02 171 146 109
-5.271254e+01 3.325970e+01 -1.007897e+02 171 146 109
-4.760083e+01 3.698674e+01 -1.085836e+02 249 225 205
-5.143132e+01 3.588970e+01 -1.030502e+02 142 134 136
-4.756708e+01 3.752157e+01 -1.084307e+02 229 204 185
-5.222137e+01 3.555621e+01 -1.011009e+02 200 185 148
-3.750242e+01 3.643958e+01 -1.038478e+02 237 239 218
-2.122874e+01 2.726795e+01 -6.986630e+01 246 241 222
-5.200764e+01 3.443208e+01 -9.016985e+01 236 220 168
-4.685493e+01 4.025687e+01 -1.093345e+02 175 173 158
1.513537e+01 8.533162e+00 -3.954834e+01 168 167 124
-5.287646e+01 1.722713e+01 -7.668553e+01 173 180 131
-5.202188e+01 1.795011e+01 -7.778743e+01 72 74 40
-4.865268e+01 1.778744e+01 -7.651042e+01 207 214 152
-4.865268e+01 1.778744e+01 -7.651042e+01 207 214 152
1.313481e+01 9.955845e+00 -4.293089e+01 216 223 115
-4.905300e+01 1.842626e+01 -7.721832e+01 208 213 154
-4.640737e+01 1.944316e+01 -7.860045e+01 213 224 171
-4.640737e+01 1.944316e+01 -7.860045e+01 213 224 171
7.425323e+00 1.201505e+01 -4.728365e+01 229 232 159
1.175665e+01 1.185754e+01 -4.590348e+01 223 231 125
-5.406576e+01 2.150341e+01 -8.431615e+01 105 116 63
-5.299174e+01 2.160987e+01 -8.398510e+01 178 194 136
1.599464e+01 1.218651e+01 -4.521442e+01 211 218 124
1.605354e+01 1.262698e+01 -4.620403e+01 103 95 48
1.503577e+01 1.291064e+01 -4.681522e+01 178 190 92
-4.672137e+01 2.367028e+01 -8.580920e+01 255 232 172
-4.882224e+01 3.090628e+01 -1.078006e+02 242 220 188
-5.398030e+01 2.939179e+01 -1.006931e+02 232 211 167
-4.858588e+01 3.185428e+01 -1.079574e+02 243 209 179
-4.892976e+01 3.163041e+01 -1.069679e+02 245 212 184
-5.003782e+01 3.195604e+01 -1.057816e+02 229 216 198
-4.738086e+01 3.306151e+01 -1.098869e+02 244 213 206
-5.666123e+01 3.012795e+01 -9.688104e+01 207 192 147
