ply
format ascii 1.0
element vertex 918
property float x
property float y
property float z
property uchar diffuse_red
property uchar diffuse_green
property uchar diffuse_blue
end_header
-3.272060e+02 4.722567e+01 -2.345826e+02 121 120 106
-7.898004e+01 3.175568e+01 -9.201613e+01 244 182 143
-3.309814e+00 -3.804736e+00 7.112666e+00 29 29 39
-4.216281e+00 -3.107931e+00 7.515372e+00 197 208 225
-4.216281e+00 -3.107931e+00 7.515372e+00 197 208 225
-1.036549e+01 4.174135e+00 -3.200122e+01 237 229 208
-3.266726e+02 4.454804e+01 -2.332463e+02 148 143 138
-3.081850e+02 5.191705e+01 -2.358503e+02 179 164 105
-6.253429e+01 2.286841e+01 -8.696477e+01 86 77 71
-4.687326e+01 1.738023e+01 -7.692337e+01 236 228 166
-4.805773e+01 1.796513e+01 -7.746669e+01 167 145 90
-3.369544e+02 4.116478e+01 -2.119998e+02 76 74 67
-5.368950e+01 2.110116e+01 -8.329343e+01 210 221 154
-5.274237e+01 2.170165e+01 -8.399793e+01 226 243 152
-3.411518e+02 4.849751e+01 -2.224972e+02 172 185 219
-1.028974e+00 -2.554939e+00 5.134834e+00 252 250 245
-3.361723e+00 -3.511660e+00 7.751838e+00 168 107 41
-2.018185e+00 -2.048809e+00 6.767745e+00 230 231 226
-3.445136e+02 2.989278e+01 -1.456653e+02 92 109 140
-3.409424e+02 3.039884e+01 -1.418416e+02 255 254 254
1.582569e-01 -1.464210e+00 1.571909e+00 180 106 57
-3.446415e+02 2.422372e+01 -1.306704e+02 96 99 130
-3.489115e+02 2.439858e+01 -1.281236e+02 248 247 249
-3.304444e+02 5.044467e+01 -2.201559e+02 255 254 255
-8.308652e+00 -4.776823e+00 6.467072e+00 126 127 133
-6.419414e-01 -1.093873e+00 2.553981e+00 237 245 242
-2.541984e+01 1.630018e+01 -6.906720e+01 243 238 150
-6.862284e+00 2.894550e+00 3.920055e+00 192 216 216
-3.452050e+02 2.575824e+01 -1.359948e+02 102 117 142
-3.450008e+02 2.573861e+01 -1.359088e+02 102 117 142
-9.839778e+01 2.530275e+01 -1.045061e+02 169 158 137
-9.839778e+01 2.530275e+01 -1.045061e+02 169 158 137
-3.415816e+02 3.022367e+01 -1.398808e+02 255 254 254
-1.214341e+00 -5.946838e+00 6.501355e+00 60 59 59
-3.265205e+00 -3.352442e+00 7.707091e+00 255 207 73
-6.806283e-01 -2.208585e+00 4.429637e+00 255 254 255
-1.317881e+00 -1.228425e+00 4.206347e+00 194 196 182
-7.691571e+01 1.973669e+01 -9.338936e+01 242 239 220
-4.323662e+02 2.187059e+01 -1.430341e+02 88 91 61
-4.323662e+02 2.187059e+01 -1.430341e+02 88 91 61
-2.748929e+01 1.898752e+01 -7.066304e+01 236 253 163
-3.231802e+01 1.333698e+01 -6.670583e+01 212 209 149
-4.199329e+01 1.752086e+01 -7.671313e+01 236 221 156
-2.761103e+01 1.725240e+01 -6.875437e+01 214 234 137
-1.273896e+01 3.466897e+00 5.246324e-01 73 107 141
-2.720008e+01 1.853219e+01 -7.056298e+01 229 245 155
-2.720795e+01 1.908331e+01 -7.107101e+01 228 252 129
2.559940e+00 -7.354442e+00 1.226585e+01 53 61 68
-5.188537e-01 -3.030549e+00 3.790221e+00 63 60 63
-9.828867e-01 -3.086348e+00 4.777963e+00 254 255 253
-5.030129e-01 -2.806203e+00 3.720617e+00 251 253 247
-1.406469e+00 -1.353331e+00 4.441663e+00 34 31 36
-8.784921e+00 1.610030e+00 7.353559e-01 30 39 49
-3.290530e+01 1.451494e+01 -6.916240e+01 241 249 155
-2.772075e+01 1.650294e+01 -6.934964e+01 118 101 56
-2.737392e+01 1.679321e+01 -6.926040e+01 232 248 141
-2.869206e+01 1.698983e+01 -6.837626e+01 227 244 130
-2.910213e+01 1.798808e+01 -6.978932e+01 226 233 129
-2.874275e+01 1.835861e+01 -7.012597e+01 114 98 42
-2.909464e+01 1.843384e+01 -7.020502e+01 105 113 43
-3.286842e+02 4.201066e+01 -2.124917e+02 156 142 139
-2.860880e+01 1.872335e+01 -7.021932e+01 123 118 67
-3.270806e+02 4.957337e+01 -2.249436e+02 123 133 156
-1.570811e-01 -1.633118e+00 2.965107e+00 238 239 237
-3.916237e+00 -2.061901e+00 6.009985e+00 255 255 255
-2.957702e+00 -4.053925e+00 6.853470e+00 254 254 254
-2.297165e-01 -1.866599e+00 2.510534e-01 50 50 52
-1.838544e-01 -2.193854e+00 3.141593e+00 178 187 182
-4.731294e-01 -1.715068e+00 3.219647e+00 243 245 244
-2.194819e+01 3.633408e+00 -4.084723e+00 119 156 174
-7.687973e-01 -2.965236e+00 4.266250e+00 166 172 183
-1.225656e-01 -1.383070e+00 6.753018e-01 173 105 21
-8.355607e+01 2.924822e+01 -9.538978e+01 246 175 141
-7.706103e+01 2.858298e+01 -9.153734e+01 246 179 145
-9.540255e-01 -2.490337e+00 5.233706e+00 233 228 228
-5.137044e-01 -7.255355e-01 2.281166e+00 252 252 252
-8.912259e+01 2.804495e+01 -9.881108e+01 246 182 153
-8.912259e+01 2.804495e+01 -9.881108e+01 246 182 153
1.507139e+00 -8.025842e+00 1.448674e+01 48 53 54
-7.111997e-01 -1.266675e+00 2.400167e+00 175 194 208
-8.004112e+01 1.977850e+01 -9.533827e+01 234 233 212
-4.103133e+01 1.889553e+01 -7.816967e+01 142 121 71
-8.541490e+01 2.075903e+01 -9.825338e+01 140 143 142
-9.040769e+01 2.421513e+01 -1.001843e+02 222 210 184
-8.969527e+01 2.520675e+01 -9.968474e+01 90 76 71
-8.587692e+01 2.506212e+01 -9.761419e+01 97 76 73
-8.831576e+01 2.613337e+01 -9.880078e+01 252 187 157
-8.831576e+01 2.613337e+01 -9.880078e+01 252 187 157
-7.247106e-01 -2.861682e+00 4.240527e+00 254 255 251
-3.308860e-01 -2.413501e+00 3.466169e+00 70 69 79
-6.386113e-01 -2.387301e+00 4.145931e+00 255 255 255
-2.407397e+00 -1.701465e+00 6.176536e+00 37 40 56
-1.100136e+01 -1.483681e-01 5.446775e+00 160 202 244
-5.555368e+01 9.523334e+00 -5.753304e+01 169 158 136
-5.044753e+01 1.585394e+01 -7.457009e+01 185 174 119
-9.272282e+01 2.648077e+01 -1.011969e+02 254 190 159
-9.272282e+01 2.648077e+01 -1.011969e+02 254 190 159
-9.212970e+01 2.748533e+01 -1.010612e+02 117 76 73
-9.862427e-01 -3.231505e+00 4.862143e+00 244 244 244
-8.791536e-01 -3.157974e+00 4.515546e+00 216 217 212
-5.329319e-01 -2.964354e+00 3.833147e+00 187 187 189
-9.992746e-01 -1.251274e+00 -1.110268e+01 123 127 128
6.053249e-02 -7.964095e-01 -1.217194e+01 125 107 93
-3.328070e-01 -2.049794e+00 3.715369e+00 255 255 255
-1.478931e+00 -1.399791e+00 4.531271e+00 48 52 61
-5.741213e+01 8.524178e+00 -5.456918e+01 229 221 184
-5.488589e+01 1.031909e+01 -5.897675e+01 125 116 107
-8.939137e+01 2.006287e+01 -1.007456e+02 252 254 244
-8.818346e+01 2.291349e+01 -9.904114e+01 252 246 226
-8.778597e+01 2.406920e+01 -9.849043e+01 116 111 109
-9.358058e+01 2.805491e+01 -1.014117e+02 241 173 143
-7.990991e+01 2.952555e+01 -9.357013e+01 254 192 157
1.509912e+00 -8.645070e+00 1.680845e+01 30 32 37
-3.492467e-01 -2.868400e+00 3.413425e+00 128 129 123
-9.006625e-01 -2.744235e+00 4.698267e+00 251 251 243
-9.014008e-01 -2.741397e+00 4.696244e+00 251 251 243
-1.009284e+00 -2.679663e+00 4.962745e+00 251 249 244
-2.235950e-01 -1.750038e+00 -2.880786e-02 38 38 37
-1.407743e+00 -1.317516e+00 4.276858e+00 28 33 49
-1.407743e+00 -1.317516e+00 4.276858e+00 28 33 49
-1.350531e+01 2.829239e+00 -2.770047e+01 238 235 230
-8.947170e+01 -6.782037e+00 -2.277158e+00 164 145 120
-9.104950e+01 -5.765655e+00 -1.130410e+00 82 72 52
-5.472226e+01 8.956726e+00 -5.650786e+01 103 99 88
-8.037214e+01 1.904992e+01 -9.554225e+01 247 244 217
-1.249323e+01 3.447131e+00 5.593036e-01 158 187 190
-1.263941e+01 3.390842e+00 7.080150e-01 167 192 193
-1.432168e+01 2.809720e+00 3.754208e+00 165 199 221
-7.246470e+01 2.530151e+01 -8.773633e+01 124 73 69
-8.634460e+01 3.140759e+01 -9.641309e+01 248 182 149
-1.024536e+00 -2.908428e+00 4.966658e+00 111 114 147
-7.534121e-01 -2.750123e+00 4.313205e+00 115 122 166
-1.179225e+00 -2.879573e+00 5.340138e+00 41 49 52
-4.922242e-01 -2.484179e+00 3.822284e+00 255 255 254
-2.977427e-01 -2.310771e+00 3.437243e+00 124 127 123
-2.977427e-01 -2.310771e+00 3.437243e+00 124 127 123
-9.030273e-01 -2.408434e+00 4.905406e+00 130 123 129
-1.525201e+00 -1.359438e+00 4.670398e+00 218 220 213
-1.354126e+00 -1.266020e+00 4.278597e+00 35 37 50
-1.463517e+00 -1.246947e+00 4.553464e+00 29 31 59
-1.384485e+00 -1.194151e+00 4.377159e+00 31 32 53
-1.385218e+00 -1.194976e+00 4.375899e+00 31 32 53
-1.767500e+01 6.182061e-01 -2.004065e+01 242 237 230
-1.481921e+01 2.131311e+00 -2.527951e+01 234 233 218
-1.308904e+01 2.955070e+00 -2.788317e+01 237 241 219
-5.869838e+01 7.982648e+00 -5.237937e+01 214 202 178
-1.292908e+02 -1.274017e+00 -2.837407e+01 135 134 132
-5.322228e+01 1.604040e+01 -7.563832e+01 61 61 22
-8.663587e+01 1.975949e+01 -9.902395e+01 255 255 225
-8.275012e+01 1.998038e+01 -9.668470e+01 243 242 222
-8.689404e+01 2.050577e+01 -9.895599e+01 255 254 244
-8.795461e+01 2.529878e+01 -9.884314e+01 127 90 81
-9.281814e+01 2.582351e+01 -1.015897e+02 129 96 81
-8.509672e+01 3.088317e+01 -9.560843e+01 163 105 87
-8.509672e+01 3.088317e+01 -9.560843e+01 163 105 87
1.110556e+01 -6.722045e+00 1.132434e+01 140 138 121
-8.425819e-01 -3.117861e+00 4.553013e+00 239 241 240
-5.661406e-01 -2.958092e+00 3.935124e+00 124 122 136
-8.718455e-01 -3.085747e+00 4.604333e+00 125 127 149
-1.079242e+00 -2.601242e+00 5.203037e+00 254 252 244
-1.413245e+00 -1.349557e+00 4.432704e+00 27 28 43
-1.491515e+00 -1.330177e+00 4.629232e+00 32 28 43
-1.512102e+00 -1.336635e+00 4.618780e+00 32 28 43
-1.696456e+01 8.670154e-01 -2.063235e+01 202 203 184
-9.158496e+01 -5.274485e+00 -3.981010e+00 208 114 115
-1.350221e+01 3.865260e-01 4.653405e+00 162 182 206
-9.451029e+01 -4.800983e+00 -5.903358e+00 106 75 54
-5.356675e+01 9.620477e+00 -5.880225e+01 113 101 89
-5.580241e+01 9.242602e+00 -5.726084e+01 180 173 141
-4.826117e+01 1.289375e+01 -7.042591e+01 245 234 201
-5.594124e+01 1.165193e+01 -6.182583e+01 132 136 80
-4.194236e+01 1.799538e+01 -7.772690e+01 235 211 161
-7.774817e+01 1.898146e+01 -9.391557e+01 121 116 111
-8.839935e+01 2.074174e+01 -9.990273e+01 185 181 170
-9.239145e+01 2.109184e+01 -1.023538e+02 180 173 162
-8.372815e+01 9.192926e+00 -3.728344e+01 170 199 205
-8.154493e+01 2.382661e+01 -9.454543e+01 231 226 186
-9.083184e+01 2.786040e+01 -9.998339e+01 234 169 137
-8.808392e+01 2.830748e+01 -9.830430e+01 229 162 142
-8.476809e+01 3.191122e+01 -9.530928e+01 253 188 158
-8.871226e-01 -3.210474e+00 4.611605e+00 249 250 246
-9.971924e-01 -3.182074e+00 4.907760e+00 254 254 254
-9.687877e-01 -3.142869e+00 4.824246e+00 121 125 138
-5.514348e-01 -2.936242e+00 3.871398e+00 253 253 253
-7.964461e-01 -3.040715e+00 4.428265e+00 130 127 153
-4.890301e-01 -2.848543e+00 3.697325e+00 129 130 143
-1.100907e+00 -3.072355e+00 5.063583e+00 251 250 242
-6.328707e-01 -2.820234e+00 4.001365e+00 106 111 125
-1.179190e-01 -7.006740e-01 -1.241616e+01 140 143 122
-7.332792e-01 -2.410761e+00 4.380839e+00 255 254 249
-8.076348e-01 -2.378311e+00 4.702501e+00 254 254 255
-7.755493e-01 -2.245922e+00 4.621027e+00 255 254 255
-5.282132e-01 -2.122744e+00 4.025324e+00 255 254 254
-5.963285e-01 -2.139434e+00 4.228295e+00 254 253 254
-1.374555e+00 -1.403270e+00 4.348491e+00 26 27 48
-1.311424e+00 -1.303366e+00 4.237798e+00 218 215 213
-1.667875e+01 1.200150e+00 -2.226595e+01 238 234 219
-2.889542e+01 4.229513e+00 -3.477329e+01 238 242 219
-2.889542e+01 4.229513e+00 -3.477329e+01 238 242 219
-2.232307e+01 9.051468e+00 -5.393769e+01 170 166 160
-8.841978e+00 6.997122e-01 3.483792e+00 159 180 207
-9.125164e+01 -5.577864e+00 -6.379488e+00 242 218 190
-4.521713e+01 1.498867e+01 -7.432185e+01 251 238 184
-4.391752e+01 1.784201e+01 -7.714300e+01 204 214 163
-7.711576e+01 1.912415e+01 -9.366395e+01 202 196 176
-4.477335e+01 1.815863e+01 -7.757780e+01 108 109 77
-5.697875e+01 1.693314e+01 -7.602236e+01 85 79 28
-5.959785e+01 1.896883e+01 -8.193512e+01 152 148 104
-4.201433e+01 1.980052e+01 -7.856345e+01 211 216 149
-4.328807e+01 1.979615e+01 -7.842057e+01 97 75 26
-4.329073e+01 1.979241e+01 -7.842761e+01 97 75 26
-1.257094e+01 3.361766e+00 5.051011e-01 62 101 135
-1.428671e+01 2.655599e+00 3.832101e+00 42 65 86
-1.770431e+02 2.954226e+01 -1.501702e+02 212 214 170
-7.393258e+01 2.832929e+01 -9.007665e+01 245 181 143
-1.139104e+02 2.760973e+01 -1.130861e+02 192 162 123
-4.874536e+01 1.745759e+01 -7.756623e+01 66 66 34
-9.991816e-01 -9.921323e-01 3.018437e+00 22 22 20
-4.725208e+01 1.760344e+01 -7.712010e+01 84 82 41
-9.855680e-01 -2.878488e+00 4.859345e+00 233 220 205
-9.724406e-01 -2.815463e+00 4.863495e+00 225 216 195
-3.578047e-01 -2.052593e+00 3.695898e+00 223 218 208
-4.991498e+01 1.791081e+01 -7.666500e+01 159 160 107
-4.919668e+01 1.833537e+01 -7.797467e+01 70 50 29
-1.267439e+01 3.469153e+00 5.856119e-01 58 82 114
-1.175915e+02 2.795076e+01 -1.154822e+02 196 155 127
-6.130531e+01 2.367142e+01 -8.714161e+01 198 177 146
-9.906450e-01 -2.999223e+00 4.818579e+00 229 225 209
-9.946093e-01 -3.004313e+00 4.815084e+00 229 225 209
-6.604337e-01 -2.786679e+00 4.077897e+00 203 193 180
-6.616655e-01 -2.788176e+00 4.075708e+00 203 193 180
-4.537008e+01 1.576423e+01 -7.632702e+01 138 108 62
-4.658475e+01 1.657286e+01 -7.709698e+01 68 45 19
-4.615014e+01 1.673253e+01 -7.729651e+01 90 70 33
-4.781570e+01 1.726022e+01 -7.712911e+01 90 87 42
-6.069999e+01 2.362412e+01 -8.978573e+01 83 70 53
-8.031224e-01 -2.326320e+00 4.675281e+00 100 94 96
-4.442264e+01 1.549964e+01 -7.537369e+01 168 156 83
-4.567798e+01 1.612636e+01 -7.670731e+01 111 78 42
-4.567798e+01 1.612636e+01 -7.670731e+01 111 78 42
-4.809968e+01 1.698313e+01 -7.707934e+01 61 43 23
-4.705150e+01 1.773076e+01 -7.743252e+01 32 34 13
-5.335590e+01 2.095131e+01 -8.312836e+01 81 82 38
-5.462280e+01 2.249988e+01 -8.518561e+01 78 90 31
-2.847234e+00 -3.856962e+00 6.831513e+00 240 237 230
-8.540622e-01 -2.948976e+00 4.499047e+00 198 208 211
-9.384411e-01 -2.932450e+00 4.709932e+00 231 227 215
-7.145313e-01 -2.253581e+00 4.495142e+00 110 103 100
-1.294704e+00 -1.258138e+00 4.182201e+00 29 22 21
-1.339826e+00 -1.237294e+00 4.272824e+00 51 47 40
-9.955328e-01 -3.119487e+00 4.914803e+00 196 208 208
-4.255585e-01 -2.864311e+00 3.621661e+00 214 208 198
-8.406205e-01 -2.859824e+00 4.506937e+00 205 208 201
-1.012084e+00 -2.894949e+00 4.906700e+00 231 227 216
-7.872001e-01 -2.437877e+00 4.506536e+00 232 205 189
-6.733741e-01 -2.291084e+00 4.378963e+00 103 92 88
-6.747024e-01 -2.291970e+00 4.377337e+00 103 92 88
-3.666042e-01 -2.146294e+00 3.643685e+00 199 180 160
-7.243182e-01 -2.216481e+00 4.528976e+00 230 220 213
-6.473155e-01 -2.183366e+00 4.365570e+00 89 84 81
-1.900805e+00 -1.425761e+00 4.993731e+00 114 113 100
-1.900805e+00 -1.425761e+00 4.993731e+00 114 113 100
-5.333456e-01 -2.272124e+00 4.073025e+00 252 251 246
-4.470006e-01 -2.518872e+00 3.690160e+00 101 116 156
-1.304014e+00 -1.311130e+00 4.091702e+00 19 23 35
-7.270247e-01 -2.648039e+00 4.263346e+00 236 235 233
-2.938879e+02 4.487330e+01 -2.208542e+02 178 160 123
1.387915e+00 -6.021476e+00 7.183558e+00 190 174 149
-2.876586e+02 4.267284e+01 -2.148123e+02 179 168 118
-7.693115e-01 -2.944217e+00 4.312255e+00 228 229 229
-5.487270e-01 -2.694701e+00 3.838902e+00 246 247 240
-9.284445e-01 -2.808765e+00 4.722238e+00 245 241 237
-2.426459e-01 -1.726619e+00 -7.746550e-02 7 7 8
-5.386840e-01 -2.105962e+00 4.125368e+00 252 251 251
-5.478123e+01 1.157194e+01 -6.218700e+01 190 182 138
-1.446640e+02 2.619906e+01 -1.322329e+02 242 234 194
-1.468010e+02 2.647139e+01 -1.333563e+02 247 230 185
-1.980001e+02 3.165627e+01 -1.616553e+02 199 197 143
-3.277718e+02 4.989698e+01 -2.261819e+02 248 249 251
-2.422029e+01 3.615894e+00 -5.863022e+00 117 135 129
-2.345795e+00 -1.796022e+00 6.098862e+00 175 179 165
-2.328349e+00 -1.791585e+00 6.122531e+00 175 179 165
-8.420017e-01 -3.106631e+00 4.538157e+00 210 206 184
-6.228628e-01 -2.944728e+00 4.051234e+00 205 209 176
-9.778448e-01 -2.568245e+00 4.933519e+00 224 195 167
-9.167835e-01 -2.548511e+00 4.791972e+00 223 199 161
-8.478081e-01 -2.516582e+00 4.631955e+00 169 64 59
-6.753505e-01 -2.410640e+00 4.249292e+00 93 34 38
-9.707335e-01 -2.596854e+00 4.897354e+00 161 64 67
-9.007847e-01 -2.515742e+00 4.776889e+00 176 58 65
-5.775007e-01 -2.498011e+00 3.969496e+00 125 128 101
-7.333046e-01 -2.280079e+00 4.525123e+00 199 196 182
-2.890224e+01 4.243399e+00 -3.474839e+01 216 211 186
-4.449543e-01 -2.631204e+00 3.658330e+00 33 35 36
-4.575842e-01 -2.599714e+00 3.701228e+00 112 112 104
-4.575842e-01 -2.599714e+00 3.701228e+00 112 112 104
-5.298692e+01 1.088383e+01 -6.254284e+01 156 147 129
-1.041918e+02 2.185440e+01 -1.091556e+02 250 251 237
-2.694597e+01 1.963790e+01 -7.259146e+01 85 86 31
-5.137290e+01 2.059539e+01 -8.309502e+01 255 230 152
-3.468493e+02 2.528247e+01 -1.310275e+02 85 99 119
-3.454221e+02 1.900515e+01 -1.386317e+02 45 44 51
-3.476876e+02 2.080098e+01 -1.457827e+02 60 66 76
-3.392219e+02 2.422573e+01 -1.463220e+02 255 255 255
-3.475433e+02 2.853817e+01 -1.425795e+02 95 112 133
-3.428633e+02 2.269512e+01 -1.437005e+02 239 241 226
-3.465172e+02 2.365456e+01 -1.329397e+02 254 255 251
-3.345370e+02 4.953350e+01 -2.216285e+02 110 126 160
-5.259653e+02 4.123816e+01 -2.513025e+02 214 214 190
-5.294586e+02 4.150846e+01 -2.530640e+02 214 214 190
-5.389120e+02 4.396450e+01 -2.622459e+02 71 78 101
-3.483359e+02 2.177406e+01 -1.264370e+02 254 255 252
-8.385688e-01 -2.688647e+00 4.583865e+00 253 252 248
-3.620882e+02 2.024409e+01 -1.397533e+02 202 206 188
-3.352332e+02 2.363962e+01 -1.473607e+02 38 50 60
-3.488510e+02 2.150712e+01 -1.249484e+02 255 253 250
-1.000287e+00 -2.760892e+00 4.914055e+00 255 254 254
-5.959419e+01 5.319177e-01 -5.264289e+00 203 199 187
-3.488229e+02 1.753870e+01 -1.271177e+02 192 194 180
-5.294238e+02 4.445412e+01 -2.539423e+02 144 163 175
-8.587415e-01 -2.827220e+00 4.557249e+00 118 123 154
-3.262319e+00 -2.436084e+00 7.399722e+00 255 253 246
-3.181148e+02 1.856077e+01 -1.293810e+02 179 180 179
-3.418405e+02 2.046486e+01 -1.357669e+02 209 210 197
-3.429512e+02 2.313006e+01 -1.412642e+02 92 84 104
-3.503631e+02 2.115440e+01 -1.245225e+02 255 245 243
-3.345857e+02 4.227457e+01 -2.119714e+02 68 66 54
-2.640852e+01 2.083058e+01 -7.502143e+01 205 227 130
-1.183973e+01 2.124154e+00 4.430618e+00 117 158 176
-3.596552e+02 2.502975e+01 -1.000002e+02 225 209 177
-5.806630e+01 7.708377e+00 -5.240427e+01 116 114 109
-3.456836e+02 2.838846e+01 -1.341117e+02 254 255 255
-4.338305e+00 -2.658371e+00 8.147414e+00 170 168 174
-4.853259e+00 -2.298769e+00 8.223859e+00 215 131 84
-3.510310e+02 2.584413e+01 -1.301525e+02 85 101 127
-3.453036e+02 3.141672e+01 -1.473341e+02 255 254 255
-3.652856e+02 2.894999e+01 -1.058012e+02 237 220 191
-3.886534e+00 -2.580903e+00 7.848364e+00 233 231 222
-2.336646e+00 -1.839187e+00 5.956435e+00 47 56 80
-5.127059e+00 -2.421421e+00 8.178481e+00 209 203 200
-9.001520e+00 6.847142e-01 3.322769e+00 155 180 210
-1.063683e+01 5.959916e-01 4.283029e+00 63 69 75
-2.237850e+02 -3.913062e+00 -3.117962e+01 255 226 198
-1.714617e+02 2.827498e+01 -1.457128e+02 252 253 248
-3.460736e+02 2.300519e+01 -1.302907e+02 255 255 255
-3.460134e+02 2.976203e+01 -1.428612e+02 76 92 126
-3.460134e+02 2.976203e+01 -1.428612e+02 76 92 126
-7.290558e+01 2.536580e+01 -8.841694e+01 124 73 69
-3.431070e+02 2.620082e+01 -8.633888e+01 71 63 47
-1.858293e+00 -3.321621e+00 5.290016e+00 31 31 35
-8.652420e-01 -2.309105e+00 4.833802e+00 254 254 254
-8.641408e-01 -2.308805e+00 4.834516e+00 254 254 254
-1.484530e+00 -1.342771e+00 4.623017e+00 30 32 50
-7.966355e-01 4.249964e-01 1.952190e-01 42 40 51
-1.255804e+01 2.216102e+00 -2.087465e+00 63 104 132
-1.951953e+02 3.081884e+01 -1.597927e+02 254 253 242
-3.502035e+02 2.389044e+01 -1.301754e+02 111 115 138
-2.733482e+02 9.194471e+00 -4.762051e+01 201 198 143
-2.543413e+02 7.454170e+00 -3.529021e+01 219 208 147
-3.591577e+02 2.642295e+01 -9.550207e+01 121 117 94
-3.428306e+02 2.609201e+01 -8.724256e+01 224 208 174
-2.421314e+00 -3.296677e+00 7.028817e+00 255 202 63
-3.483296e+00 -2.544867e+00 7.868179e+00 237 235 222
-1.510063e+00 -1.520132e+00 4.572455e+00 132 147 164
-4.104835e+00 -1.773885e+00 8.098572e+00 19 21 47
-1.911555e+02 -4.836973e+00 -2.310378e+01 111 122 67
-3.475430e+02 2.587639e+01 -1.282327e+02 95 101 107
-3.647102e+00 -4.041961e+00 7.594356e+00 222 227 223
-6.705829e+00 -4.152581e+00 7.410690e+00 200 217 228
-1.440357e+00 -1.445887e+00 4.474684e+00 27 33 60
-4.101733e+00 -2.275293e+00 8.029532e+00 255 254 252
-2.419960e+02 -3.762450e+00 -2.862909e+01 153 148 120
-2.413761e+02 -3.556800e+00 -2.758693e+01 135 128 100
-3.472940e+02 2.049012e+01 -1.251616e+02 217 217 215
-3.472940e+02 2.049012e+01 -1.251616e+02 217 217 215
-3.473962e+02 2.077751e+01 -1.224844e+02 255 255 250
-3.402112e+02 2.797876e+01 -1.437355e+02 127 125 156
-3.276830e+02 4.967640e+01 -2.253689e+02 124 125 158
-6.788992e-01 -3.057837e+00 4.161644e+00 222 220 208
-8.817773e-01 -2.393510e+00 4.825755e+00 238 233 223
-4.290946e+00 -1.097680e+00 1.848618e+00 175 175 170
-3.023710e+00 -2.574573e+00 6.765369e+00 199 205 211
-6.310169e-01 -2.500864e+00 4.339266e+00 238 239 237
-4.401353e+00 1.376081e+00 -9.823099e-01 154 201 243
1.969575e-01 -1.713305e+00 1.421840e+00 166 93 62
-9.653098e-01 -2.833974e+00 4.955693e+00 161 157 167
-1.388794e+00 -3.307470e+00 5.157762e+00 21 21 21
-1.388794e+00 -3.307470e+00 5.157762e+00 21 21 21
-1.226090e-01 -2.317736e+00 7.514858e-01 167 180 186
-5.248835e+00 -2.257438e+00 -7.739119e+00 44 51 66
-1.671492e+00 -1.430330e+00 4.822939e+00 195 197 182
-8.952095e+01 -6.940325e+00 7.784865e-01 164 60 63
-5.945526e+01 7.489572e+00 -4.911522e+01 226 215 181
-6.427922e-01 -2.450750e+00 1.751185e+00 17 19 18
-5.758479e-01 -2.444705e+00 1.759980e+00 17 19 18
-4.420061e-01 -1.988727e+00 3.517343e+00 106 106 111
-9.490592e+01 -1.019094e+01 1.305602e+01 183 173 148
-9.171491e+01 -8.206098e+00 7.240681e+00 105 107 92
-9.662543e+01 -1.103976e+01 1.605599e+01 184 175 146
-8.957719e+01 -7.333544e+00 2.476035e+00 243 113 99
-2.033743e-01 -2.253046e+00 1.483492e+00 255 253 254
-9.187097e+01 -8.891420e+00 8.166489e+00 152 146 124
-8.998293e+01 -7.897012e+00 4.275556e+00 255 128 115
-7.473431e+00 1.577657e+00 2.088233e-01 130 164 199
-1.344468e+01 5.214684e-01 5.168177e+00 107 125 148
-2.855386e+00 -3.919872e+00 6.717030e+00 178 190 190
-1.828798e-01 -7.170651e-01 -1.217951e+01 239 240 239
-1.875621e-01 -7.200417e-01 -1.218536e+01 239 240 239
-1.606646e-01 -2.254083e+00 1.008502e+00 119 125 124
-2.388685e+00 -1.701028e+00 6.179859e+00 44 46 59
-8.076951e-01 -6.663235e-01 2.647821e+00 29 29 43
-8.467774e-01 -6.696008e-01 2.625999e+00 29 29 43
-8.841394e+01 -8.352696e+00 4.368578e+00 103 99 81
-9.615231e+01 -1.071324e+01 1.524024e+01 108 106 91
-9.604266e+01 -1.047179e+01 1.471639e+01 166 158 134
-8.203412e+00 2.141427e+00 -2.949473e+00 163 208 250
-1.307485e+01 -9.191340e+00 1.743704e+01 194 166 137
-1.045353e+00 -1.139277e+00 -1.093218e+01 219 219 214
-8.580350e-01 -2.203605e+00 4.790513e+00 90 94 106
-1.532416e+00 -1.466032e+00 4.733526e+00 23 23 31
-1.377105e+00 -1.331499e+00 4.314660e+00 21 27 35
-1.608185e+00 -1.259193e+00 4.705095e+00 34 36 49
-1.330904e+00 -1.103929e+00 4.187000e+00 25 29 37
-6.121072e-01 -5.522953e-01 2.386494e+00 141 136 136
-9.165451e+01 -8.555097e+00 5.973386e+00 192 178 149
-9.025541e+01 -7.731984e+00 2.550908e+00 235 124 110
-9.003483e+01 -7.548044e+00 2.020343e+00 246 120 106
-1.479669e+02 -9.651868e+00 3.671797e+00 179 186 114
-1.265497e+01 3.273082e+00 4.883993e-01 55 90 121
-3.325654e+02 4.651414e+01 -2.391332e+02 64 63 74
4.413911e+00 -3.299049e+00 -2.330595e+00 247 249 247
4.413911e+00 -3.299049e+00 -2.330595e+00 247 249 247
-8.889509e-01 -3.186313e+00 4.666557e+00 241 241 237
-7.116524e-01 -3.085773e+00 4.283844e+00 238 240 237
-3.662305e+00 -4.131228e+00 7.488306e+00 74 79 81
-1.753720e+00 -3.286685e+00 5.158755e+00 18 19 21
-8.065213e-01 -2.801480e+00 4.401480e+00 242 242 244
-4.296978e-01 -1.843242e+00 3.513918e+00 81 82 93
-2.342496e+00 -2.157799e+00 6.076177e+00 255 254 254
-6.682297e-01 -9.862462e-01 2.504882e+00 71 69 90
-2.367164e+00 -1.800117e+00 6.275930e+00 254 254 255
-9.700095e+01 -1.045328e+01 9.830558e+00 85 79 71
-9.856719e+01 -1.085669e+01 1.736795e+01 72 72 60
-1.000070e+02 -1.129280e+01 1.928945e+01 114 107 81
-9.724935e+01 -9.209226e+00 1.208062e+01 203 190 146
-9.150502e+01 -6.958407e+00 3.241922e+00 150 131 92
-7.580288e+00 1.960652e+00 -1.023219e+00 27 35 64
-9.154001e+01 -5.920055e+00 -6.597781e-01 108 100 68
-9.723352e+01 -6.986010e+00 3.690501e+00 166 155 110
-1.345882e+02 -1.198960e+01 1.878174e+01 253 253 253
-5.793135e+01 8.385111e+00 -5.402246e+01 197 186 155
-3.271204e+02 4.810989e+01 -2.362061e+02 115 116 114
1.394441e+00 -6.015302e+00 7.183005e+00 190 174 149
-3.575827e+00 -3.668225e+00 5.349671e+00 111 117 115
-4.886417e-01 -2.483871e+00 3.823967e+00 253 251 242
-3.909468e+00 -2.640159e+00 8.005525e+00 151 149 152
-1.790441e+01 2.627451e-01 -1.901929e+01 60 67 77
-1.837662e+01 2.522020e-01 -1.880666e+01 150 153 116
-1.861747e+01 1.934863e-01 -1.867360e+01 203 203 183
-1.499218e+01 2.053552e+00 -2.506306e+01 159 155 139
-1.649967e+01 1.439493e+00 -2.276666e+01 121 120 118
-1.459510e+01 2.243713e+00 -2.567603e+01 164 164 161
-9.801246e+01 -1.212073e+01 1.841456e+01 38 39 29
-9.362526e+01 -8.361862e+00 8.272685e+00 109 108 74
-9.157839e+01 -5.805142e+00 -1.211447e+00 80 68 45
-8.387151e+00 2.559500e+00 -3.432391e+00 176 196 207
-1.497695e+02 -9.526754e+00 8.340902e-01 43 44 30
-1.498872e+02 -9.525134e+00 8.261078e-01 43 44 30
-1.314179e+01 -9.193441e+00 1.732851e+01 26 28 20
-7.898639e-01 -3.137798e+00 4.329746e+00 234 232 223
-5.588242e-01 -2.956508e+00 3.938334e+00 119 116 128
-7.203107e-01 -2.988556e+00 4.235894e+00 119 118 138
2.967803e-01 -5.229970e-01 -1.316359e+01 219 217 209
6.326857e-02 -1.685718e+00 1.431870e+00 224 140 29
-1.465817e+00 -1.247050e+00 4.551689e+00 32 32 62
-1.835698e-01 -3.725777e-01 3.732861e-01 204 204 194
-1.975033e+01 -4.813367e-01 -1.619009e+01 162 173 169
-1.704751e+01 8.572065e-01 -2.071023e+01 220 217 208
-1.509502e+01 2.000051e+00 -2.488706e+01 193 192 174
-6.701051e+01 -7.657604e+00 4.560268e+00 144 141 133
-2.919422e+01 4.112476e+00 -3.448965e+01 215 216 203
-9.198451e+01 -1.077330e+01 1.334569e+01 57 58 55
-9.097730e+01 -9.134975e+00 6.876663e+00 124 123 67
-9.755423e+01 -1.136534e+01 1.725038e+01 74 71 60
-9.611092e+01 -9.440726e+00 1.204642e+01 136 134 93
-9.457419e+01 -8.484813e+00 9.323910e+00 209 197 140
-9.137911e+01 -6.837672e+00 2.662368e+00 125 96 65
-8.376282e+00 2.576446e+00 -3.267363e+00 122 150 179
-1.502486e+02 -9.445374e+00 3.808147e-01 49 48 43
-6.113405e+01 7.678665e+00 -4.984493e+01 242 228 202
-6.436937e+01 7.989891e+00 -4.954902e+01 140 157 80
-6.436937e+01 7.989891e+00 -4.954902e+01 140 157 80
-6.131111e+01 1.042971e+01 -5.695494e+01 194 187 132
-3.659500e+00 -4.040397e+00 7.627548e+00 60 61 64
-6.728384e-01 -2.800852e+00 4.117779e+00 242 243 237
-5.394480e-01 -2.485242e+00 3.919919e+00 248 244 243
-5.456858e-01 -2.487574e+00 3.918444e+00 248 244 243
6.242469e-01 -7.510104e-01 5.812607e-01 189 197 195
-1.902595e+00 -1.668847e+00 4.945066e+00 117 129 153
-1.156052e+00 -1.255586e+00 3.627925e+00 119 136 155
-1.316354e+00 -1.258073e+00 4.172564e+00 18 18 22
-1.417572e+00 -1.242860e+00 4.461409e+00 38 30 51
-9.355772e+01 -7.358865e+00 5.019450e+00 212 193 152
-3.271639e+02 4.781332e+01 -2.334754e+02 125 114 125
-3.307765e+02 2.071806e+01 -1.265458e+02 167 164 144
-7.033279e-01 -3.023762e+00 4.204064e+00 210 210 179
-9.259993e-01 -2.880617e+00 4.978671e+00 230 218 196
-2.105906e+00 -3.499122e+00 5.457684e+00 14 14 14
-2.437781e+00 -2.290333e+00 6.310142e+00 158 168 178
-1.775761e+00 -1.441389e+00 4.778985e+00 186 186 179
-7.526958e-01 -2.941578e+00 4.270826e+00 193 198 193
-2.307167e+00 -1.724565e+00 5.828690e+00 136 141 138
-2.419480e+00 -3.103477e+00 6.952989e+00 150 80 33
-1.957173e+00 -3.358872e+00 5.266188e+00 15 15 15
-6.746115e-01 -2.097848e+00 4.378814e+00 51 51 49
-8.099675e-01 -3.129154e+00 4.453888e+00 187 180 172
-9.171259e-01 -3.016495e+00 4.655370e+00 198 210 206
-8.672821e-01 -2.492864e+00 4.733902e+00 242 181 170
-6.890376e-01 -2.377145e+00 4.295803e+00 189 119 107
-1.857574e-01 -2.240133e+00 1.470777e+00 253 255 254
-1.857574e-01 -2.240133e+00 1.470777e+00 253 255 254
-3.593769e+00 -3.359015e+00 7.997431e+00 128 76 51
-5.026042e-01 -2.958940e+00 3.763273e+00 156 151 145
-7.031901e-01 -2.899848e+00 4.174593e+00 182 189 185
-4.103516e-01 -2.821938e+00 3.591070e+00 72 68 68
-4.126679e-01 -2.821942e+00 3.588952e+00 72 68 68
-8.302005e-01 -2.559968e+00 4.597848e+00 230 216 199
-1.336341e+00 -1.393690e+00 4.194037e+00 40 43 45
-6.519919e-01 -6.258414e-01 2.532526e+00 236 236 225
-1.340905e+00 -1.233111e+00 4.272922e+00 33 29 26
-9.147621e-01 -3.228037e+00 4.675206e+00 225 222 208
-9.824566e-01 -3.086270e+00 4.777058e+00 203 205 202
-4.912077e-01 -2.982136e+00 3.775505e+00 205 201 189
-1.035584e+00 -2.973168e+00 4.968469e+00 228 223 201
-6.808624e-01 -2.913383e+00 4.114443e+00 167 178 172
-6.121418e-01 -2.574802e+00 4.075431e+00 214 204 181
-1.007716e+00 -2.529385e+00 5.031704e+00 229 208 184
-1.010975e+00 -2.527802e+00 5.029613e+00 229 208 184
-9.398875e-01 -2.474056e+00 4.874254e+00 217 202 176
-4.649459e-01 -2.168215e+00 3.932068e+00 89 80 77
-1.455316e+00 -1.347100e+00 4.515774e+00 26 26 27
-1.109257e+01 3.480244e-01 4.826556e+00 56 61 57
-8.395796e-01 -3.187039e+00 4.516548e+00 225 217 207
-8.965866e-01 -3.144754e+00 4.667981e+00 229 229 219
-1.081200e+00 -3.157353e+00 4.995119e+00 207 213 202
-6.964311e-01 -3.100325e+00 4.185824e+00 221 215 201
-7.827329e-01 -3.110272e+00 4.395257e+00 106 97 97
-7.827329e-01 -3.110272e+00 4.395257e+00 106 97 97
-6.551069e-01 -3.072290e+00 4.095520e+00 221 216 204
-7.971156e-01 -3.083502e+00 4.441302e+00 226 225 217
-6.240532e-01 -3.049990e+00 4.025637e+00 213 213 197
-7.506993e-01 -3.058321e+00 4.322836e+00 108 104 100
-7.506993e-01 -3.058321e+00 4.322836e+00 108 104 100
-5.970543e-01 -3.035662e+00 3.969799e+00 212 213 194
-6.398776e-01 -3.037928e+00 4.066876e+00 99 85 90
-5.706198e-01 -3.018742e+00 3.914624e+00 206 204 193
-6.913093e-01 -3.018128e+00 4.205865e+00 221 222 212
-8.209263e-01 -3.001263e+00 4.435115e+00 192 203 196
-8.209263e-01 -3.001263e+00 4.435115e+00 192 203 196
-4.226718e-01 -2.935327e+00 3.600447e+00 211 199 192
-4.227382e-01 -2.935997e+00 3.600166e+00 211 199 192
-6.394839e-01 -2.828101e+00 4.051052e+00 168 176 174
-7.304902e-01 -2.740431e+00 4.251404e+00 218 215 198
-9.299116e-01 -2.723515e+00 4.811286e+00 226 214 194
-1.053698e+00 -2.646386e+00 5.114165e+00 181 108 102
-1.002530e+00 -2.601240e+00 5.001169e+00 177 96 88
-9.849311e-01 -2.586877e+00 4.958504e+00 186 96 88
-9.174140e-01 -2.548310e+00 4.791598e+00 238 211 188
-9.945555e-01 -2.536681e+00 4.994146e+00 181 102 95
-9.945555e-01 -2.536681e+00 4.994146e+00 181 102 95
-9.273539e-01 -2.528875e+00 4.824327e+00 173 92 89
-9.151995e-01 -2.493264e+00 4.807207e+00 231 202 179
-9.151995e-01 -2.493264e+00 4.807207e+00 231 202 179
-8.135152e-01 -2.478799e+00 4.574571e+00 235 204 184
-6.771720e-01 -2.408482e+00 4.246960e+00 167 85 85
-7.606787e-01 -2.416475e+00 4.451032e+00 232 197 179
-8.833297e-01 -2.420857e+00 4.844086e+00 224 223 208
-7.746961e-01 -2.402827e+00 4.483073e+00 177 86 89
-8.565021e-01 -2.403289e+00 4.770277e+00 107 96 92
-1.382163e-01 -2.150971e+00 9.589818e-01 126 125 115
-7.095554e-01 -2.222067e+00 4.489735e+00 77 70 74
-5.180832e-01 -2.162598e+00 3.980263e+00 120 105 90
-1.414873e+00 -1.294999e+00 4.448423e+00 127 125 119
1.881169e+00 -1.174108e+00 7.429610e+00 60 65 60
-9.690447e-01 -3.208618e+00 4.824341e+00 130 124 118
-9.690447e-01 -3.208618e+00 4.824341e+00 130 124 118
-7.994038e-01 -3.160114e+00 4.412723e+00 225 221 208
-9.538563e-01 -3.180363e+00 4.798108e+00 233 231 223
-9.153857e-01 -3.155922e+00 4.722683e+00 228 231 221
-7.217126e-01 -3.074291e+00 4.258744e+00 104 97 91
-6.956582e-01 -3.071608e+00 4.198320e+00 224 223 213
-7.124976e-01 -3.064914e+00 4.222557e+00 109 104 101
-7.523951e-01 -3.030704e+00 4.347170e+00 228 222 215
-6.082715e-01 -2.999541e+00 4.010194e+00 106 97 95
-6.082715e-01 -2.999541e+00 4.010194e+00 106 97 95
-6.571084e-01 -2.995185e+00 4.123004e+00 223 227 217
-5.281303e-01 -2.962909e+00 3.851143e+00 92 84 84
-5.284091e-01 -2.962864e+00 3.851623e+00 92 84 84
-4.845466e-01 -2.926582e+00 3.745771e+00 214 216 203
-7.478991e-01 -2.949935e+00 4.231908e+00 189 197 193
-5.025243e-01 -2.907147e+00 3.792819e+00 213 215 208
-4.409150e-01 -2.629896e+00 3.659972e+00 98 94 82
-1.032351e+00 -2.633182e+00 5.061013e+00 180 109 100
-9.589833e-01 -2.574668e+00 4.878914e+00 236 206 184
-1.040661e+00 -2.568816e+00 5.107391e+00 173 103 95
-1.040661e+00 -2.568816e+00 5.107391e+00 173 103 95
-9.409535e-01 -2.531308e+00 4.851103e+00 243 210 188
-9.530152e-01 -2.525945e+00 4.904851e+00 242 206 184
-1.005938e+00 -2.521088e+00 5.072589e+00 223 212 183
-8.040786e-01 -2.485266e+00 4.520932e+00 168 94 90
-7.725510e-01 -2.471787e+00 4.465563e+00 159 110 96
-7.725510e-01 -2.471787e+00 4.465563e+00 159 110 96
-8.042099e-01 -2.466586e+00 4.528620e+00 175 101 96
-8.683220e-01 -2.461774e+00 4.702474e+00 169 86 80
-9.202525e-01 -2.429504e+00 4.959995e+00 154 144 128
-8.118587e-01 -2.385594e+00 4.682101e+00 218 210 201
-7.610942e-01 -2.238309e+00 4.638394e+00 210 212 200
-5.927774e-01 -2.180435e+00 4.219739e+00 99 98 95
-5.910793e-01 -2.180743e+00 4.221061e+00 99 98 95
9.658768e-02 -1.789480e+00 1.598478e+00 56 47 38
-6.097767e-02 -1.752109e+00 1.218297e+00 70 52 43
-1.410080e+00 -1.170342e+00 4.418147e+00 34 27 25
-7.107717e-01 -5.587618e-01 2.582333e+00 145 145 140
-1.349287e-01 -1.384190e+00 7.232484e-01 138 80 22
-1.207570e+01 1.197139e-01 5.040058e+00 73 82 91
-9.053605e-01 -2.463548e+00 1.564753e+00 25 27 26
-9.157130e-02 -1.844117e+00 -1.726388e-01 225 222 216
-5.279472e-02 -1.848040e+00 -1.464250e-01 225 222 216
-9.495277e-01 -7.694384e-01 1.483047e+00 189 190 185
-5.707537e-01 -8.982043e-01 2.392914e+00 255 255 255
-1.508287e+00 -1.162447e-01 -9.306524e-01 95 82 82
-6.916761e-01 -3.089600e+00 4.389287e+00 231 232 228
-2.579253e-01 -1.742495e+00 -5.611699e-02 17 17 19
-8.631307e-01 -2.343106e+00 4.799014e+00 249 249 250
-7.197714e-01 2.689750e-01 2.715591e-01 219 217 205
-1.267435e+01 3.274445e+00 5.091665e-01 55 92 126
-9.112123e-01 -3.164961e+00 4.525957e+00 220 222 219
-9.012569e-01 -3.186748e+00 4.657645e+00 236 237 235
-6.730630e-01 -2.885791e+00 4.029145e+00 106 120 151
-1.033185e+00 -2.832826e+00 5.022951e+00 233 234 220
-1.054268e+00 -2.476380e+00 5.266868e+00 250 250 245
-2.376373e+00 -2.781224e-01 -2.056838e+00 132 135 136
-4.331127e+00 -1.818666e+00 7.948397e+00 38 40 60
-8.522266e-01 4.236226e-01 2.001999e-01 30 33 49
-1.165601e+01 -4.499300e-02 5.396747e+00 48 68 100
-9.553377e-01 -3.239308e+00 4.758050e+00 226 227 219
-9.354785e-01 -2.913813e+00 4.702155e+00 240 235 233
-5.914928e-01 -2.217586e+00 4.168636e+00 255 254 255
-3.276897e+00 -2.422674e+00 7.321152e+00 243 240 233
-1.409972e+00 -1.346998e+00 4.434538e+00 38 36 49
-4.943539e+00 -2.555862e+00 -6.323018e+00 106 95 91
-7.528588e-01 -2.804971e+00 4.294261e+00 238 239 229
-1.022149e+00 -2.857433e+00 5.002299e+00 240 241 234
-2.498438e-01 -1.885425e+00 4.428540e-01 12 12 12
-6.365707e-01 -2.387904e+00 4.151462e+00 201 195 183
-1.021901e+00 -1.000320e+00 2.988837e+00 25 27 26
-6.819741e-01 -2.889890e+00 4.054483e+00 67 79 92
-3.435533e-01 -2.871002e+00 3.414385e+00 76 78 74
-3.700654e+00 -4.022257e+00 7.630186e+00 55 67 61
-6.121525e-01 -2.333853e+00 4.222518e+00 190 183 169
-3.722685e+00 -3.964004e+00 7.531978e+00 119 120 105
-6.301724e-01 -1.049099e+00 2.550694e+00 230 230 229
-7.020977e-01 4.105374e-01 1.746502e-01 131 135 147
-7.159952e-01 -3.114239e+00 4.249329e+00 217 207 204
-9.729363e-01 -3.267995e+00 4.838184e+00 222 213 205
-4.194240e-01 -2.867376e+00 3.625193e+00 219 214 211
-1.053798e+00 -2.916596e+00 4.986859e+00 90 104 112
-1.053798e+00 -2.916596e+00 4.986859e+00 90 104 112
-7.171743e-01 -2.358174e+00 4.407384e+00 156 107 96
-1.492777e+00 -1.256574e+00 4.567672e+00 34 39 35
-5.966971e-01 -3.035473e+00 3.969987e+00 214 206 204
-6.561283e-01 -3.072212e+00 4.095228e+00 214 209 202
-7.809012e-01 -3.143937e+00 4.364767e+00 213 207 200
-5.274584e-01 -2.927387e+00 3.846219e+00 215 213 211
-8.366103e-01 -3.108374e+00 4.538154e+00 220 219 214
-8.619039e-01 -3.116932e+00 4.563882e+00 224 220 212
-9.722955e-01 -3.170586e+00 4.857187e+00 228 223 220
-6.799314e-01 -2.912773e+00 4.114728e+00 142 158 163
-7.288957e-01 -2.689412e+00 4.301788e+00 192 191 191
-1.033538e+00 -2.633239e+00 5.060792e+00 154 97 93
-7.738793e-01 -2.403817e+00 4.482878e+00 136 80 76
-6.271174e-01 -2.290606e+00 4.218761e+00 185 176 158
-8.041953e-01 -2.378611e+00 4.646732e+00 66 65 55
-8.577795e-01 -2.401802e+00 4.770595e+00 83 80 72
-6.291837e-01 -9.819918e-01 2.575433e+00 198 200 197
-3.983475e+00 -2.639117e+00 7.915100e+00 152 147 135
-1.334448e+00 -1.197915e+00 4.282730e+00 35 36 32
-1.346948e+00 -1.196807e+00 4.315399e+00 181 176 166
-1.481671e+00 -1.289462e+00 4.604134e+00 218 204 194
-1.073277e+01 5.406756e-01 4.336348e+00 52 58 62
-4.418183e-01 -2.951984e+00 3.645727e+00 214 205 202
-6.740896e-01 -3.087862e+00 4.141154e+00 214 206 201
-5.119134e-01 -2.955250e+00 3.822963e+00 99 102 97
-1.015490e+00 -3.003544e+00 4.866298e+00 187 181 177
-6.856757e-01 -2.645173e+00 4.197408e+00 172 174 168
-6.969017e-01 -2.356005e+00 4.318388e+00 139 79 71
-6.195045e-01 -2.265776e+00 4.254060e+00 74 74 75
-6.498249e-01 -2.192595e+00 4.356100e+00 76 77 74
-6.498249e-01 -2.192595e+00 4.356100e+00 76 77 74
-8.462009e-01 -2.292485e+00 4.783927e+00 86 87 82
-8.462009e-01 -2.292485e+00 4.783927e+00 86 87 82
-7.941961e-01 -2.252632e+00 4.699294e+00 217 211 211
-7.941961e-01 -2.252632e+00 4.699294e+00 217 211 211
-2.336345e+00 -1.795125e+00 6.123445e+00 232 229 223
-1.432958e+00 -1.223405e+00 4.507731e+00 238 227 220
-1.416038e+00 -1.184642e+00 4.465545e+00 211 202 204
-1.465682e+00 -1.198573e+00 4.516389e+00 43 47 38
-9.080073e+00 1.350552e+00 1.513368e+00 63 62 60
-3.444310e+02 2.228645e+01 -1.350476e+02 255 255 255
-3.502447e+02 1.857407e+01 -1.192974e+02 254 254 255
-3.497708e+02 1.861236e+01 -1.191221e+02 254 254 255
-3.539087e+02 1.518589e+01 -1.261833e+02 27 28 32
-3.519436e+02 1.516168e+01 -1.226039e+02 253 254 254
-3.487795e+02 1.711412e+01 -1.255095e+02 252 242 234
-3.535313e+02 1.694084e+01 -1.215622e+02 68 67 89
-3.511690e+02 1.751483e+01 -1.226875e+02 91 87 115
-3.475314e+02 1.884671e+01 -1.257454e+02 218 219 211
-3.476758e+02 2.388180e+01 -1.292296e+02 113 127 145
-3.476758e+02 2.388180e+01 -1.292296e+02 113 127 145
-6.311102e+02 5.392517e+01 -2.448471e+02 124 116 97
-3.520365e+02 1.299518e+01 -1.211568e+02 77 69 76
-5.939950e+02 4.911499e+01 -2.979878e+02 57 63 72
-5.900413e+02 4.940104e+01 -2.978991e+02 78 81 94
-3.497545e+02 2.226787e+01 -1.227517e+02 255 253 253
-3.494166e+02 1.416323e+01 -1.223276e+02 247 254 251
-3.503304e+02 1.587349e+01 -1.190635e+02 253 254 252
-3.484289e+02 1.743021e+01 -1.234130e+02 255 251 242
-5.286674e+02 4.357093e+01 -2.509516e+02 193 210 211
-9.172447e+00 1.331148e+00 1.682774e+00 33 43 52
-3.482036e+02 2.736781e+01 -1.380864e+02 101 116 140
-3.529620e+02 1.239877e+01 -1.191151e+02 111 111 73
-5.816876e+02 5.358498e+01 -2.249545e+02 179 169 139
-2.726242e+02 -1.092273e+00 -4.939896e+01 58 55 43
-3.472518e+02 2.853447e+01 -1.346994e+02 254 255 255
-3.472518e+02 2.853447e+01 -1.346994e+02 254 255 255
-6.057885e+02 5.394382e+01 -2.884703e+02 255 255 255
-3.111883e+02 3.564817e+00 -7.076313e+01 86 89 68
-3.563844e+02 1.426136e+01 -1.200031e+02 227 211 155
-3.549811e+02 3.378267e+01 -1.501461e+02 86 86 94
-4.363439e+02 3.176613e+01 -1.444307e+02 203 188 156
-5.926391e+02 6.333759e+01 -2.329137e+02 151 138 112
-3.447401e+02 2.084408e+01 -1.314663e+02 216 213 209
-3.748889e+02 2.806349e+01 -1.076754e+02 92 82 70
-3.502709e+02 1.335099e+01 -1.224927e+02 97 98 92
-3.753270e+02 1.050485e+01 -1.118799e+02 89 79 68
-3.916849e+02 1.243575e+01 -1.204728e+02 195 180 152
-3.921201e+02 1.242088e+01 -1.205873e+02 195 180 152
-3.519240e+02 1.514839e+01 -1.190304e+02 93 93 85
-3.469547e+02 1.953136e+01 -1.261723e+02 255 254 254
-3.749540e+02 2.191885e+01 -1.073497e+02 125 118 91
-3.732066e+02 2.566094e+01 -1.070162e+02 210 208 169
-3.759890e+02 3.077302e+01 -1.065574e+02 244 234 198
-3.753951e+02 2.114147e+01 -1.081764e+02 106 102 67
-4.252050e+02 2.781126e+01 -1.386129e+02 94 92 53
-4.468303e+01 1.608048e+01 -7.659938e+01 237 188 128
-3.449875e+02 2.986690e+01 -1.459025e+02 79 98 131
-1.827036e+02 -1.070507e+01 6.692929e+00 59 56 38
-2.201715e+02 4.485130e+00 -1.338387e+01 209 198 169
-3.427506e+02 3.045517e+01 -1.426465e+02 254 254 253
-1.049277e+00 -2.608937e+00 5.103656e+00 226 169 176
-1.832249e+02 -1.141622e+01 7.197726e+00 171 157 124
-2.201113e+02 -2.363028e+00 -1.561188e+01 25 28 14
-2.209907e+02 5.193370e+00 -1.416890e+01 59 57 44
-2.362893e+02 1.173918e+01 -2.262288e+01 161 146 115
-2.388680e+02 1.588115e+01 -1.984532e+01 192 184 146
-1.533426e+02 -9.211234e+00 -1.084547e+00 59 59 62
-1.642247e+02 -8.920466e+00 1.893181e+01 67 60 32
-2.231088e+02 -3.296552e+00 -1.494555e+01 64 59 44
-2.189385e+02 1.463868e+00 -1.388008e+01 169 165 120
-3.454800e+02 2.990478e+01 -1.426749e+02 77 84 112
-2.379297e+02 8.294554e+00 -2.430525e+01 32 26 13
-2.020332e+02 5.440153e+00 -2.416256e+00 47 45 34
-2.731304e+02 1.437316e+01 -4.571020e+01 181 166 135
-2.391266e+02 1.477239e+01 -2.169064e+01 224 214 206
-2.179441e+00 -1.843275e+00 5.570597e+00 127 135 161
-9.234674e+00 1.231129e+00 1.751563e+00 18 23 28
-1.344754e+02 -1.221836e+01 1.842051e+01 98 102 79
-1.824001e+02 -1.132778e+01 6.075291e+00 156 146 113
-1.643982e+02 -9.351214e+00 1.809571e+01 54 61 39
-2.714323e+02 3.179982e+00 -4.813954e+01 185 183 152
-2.012309e+02 -2.034844e+00 -3.757470e+00 215 208 172
-1.832145e+02 -2.893344e+00 7.799378e+00 79 81 44
-2.370298e+02 2.270498e+00 -2.526484e+01 76 75 32
-2.014154e+02 7.515140e-01 -2.762329e+00 235 223 194
-2.192318e+02 2.605267e+00 -1.337338e+01 69 67 30
-2.373439e+02 4.327456e+00 -2.385529e+01 104 97 66
-2.016253e+02 1.986095e+00 -2.608627e+00 207 198 154
-2.370405e+02 5.919586e+00 -2.391845e+01 229 225 185
-2.194113e+02 4.568298e+00 -1.347571e+01 202 190 159
-2.372072e+02 6.551258e+00 -2.427567e+01 31 31 3
-2.195657e+02 4.678700e+00 -1.243915e+01 73 62 43
-2.199146e+02 4.660152e+00 -1.248033e+01 73 62 43
-2.562783e+02 8.752301e+00 -3.461169e+01 72 62 34
-2.389235e+02 7.846680e+00 -2.411686e+01 165 160 120
-2.190837e+02 6.998588e+00 -1.323209e+01 159 159 132
-2.190837e+02 6.998588e+00 -1.323209e+01 159 159 132
-2.895899e+02 1.592916e+01 -5.574743e+01 103 93 75
-2.723828e+02 1.376308e+01 -4.494924e+01 62 59 37
-2.386775e+02 1.397549e+01 -2.050470e+01 212 203 172
-5.724430e-01 -2.782868e+00 3.842092e+00 254 251 247
-1.347398e+02 -1.172990e+01 1.916013e+01 150 138 138
-1.343903e+02 -1.173940e+01 1.940186e+01 255 253 245
-2.013412e+02 -6.272698e+00 -4.556322e+00 148 139 112
-2.197445e+02 -1.092808e+00 -1.433325e+01 141 138 90
-2.192386e+02 -6.897450e-01 -1.449296e+01 190 186 140
-1.833809e+02 -3.595388e+00 7.917712e+00 82 79 29
-2.367961e+02 1.227480e+00 -2.551325e+01 31 19 2
-2.366913e+02 2.986013e+00 -2.490946e+01 65 59 23
-2.374677e+02 4.031454e+00 -2.486244e+01 68 60 29
-2.372151e+02 4.712500e+00 -2.461694e+01 72 67 42
-2.906154e+02 1.082048e+01 -5.534317e+01 235 229 194
-2.379072e+02 5.863172e+00 -2.357976e+01 118 112 80
-2.013667e+02 3.392315e+00 -3.131418e+00 22 31 1
-2.198334e+02 5.494829e+00 -1.246471e+01 44 37 20
-2.196598e+02 7.446181e+00 -1.344248e+01 202 195 157
-2.198292e+02 9.151861e+00 -1.253017e+01 58 55 28
-4.216409e-01 -2.865593e+00 3.625667e+00 205 206 190
-6.440158e-01 -2.778033e+00 4.050284e+00 202 193 180
-1.052454e+00 -2.556072e+00 5.137352e+00 230 214 183
-7.902498e-01 -3.550755e+00 2.453889e+00 13 13 13
-4.041061e-01 -1.584075e+00 4.090489e-01 157 82 49
-1.388005e+00 -1.218712e+00 4.065712e+00 190 191 182
-2.275015e-01 -2.015552e+00 1.071748e+00 69 77 79
-7.872026e-01 -1.078150e+00 2.716570e+00 235 235 238
-1.619323e+00 -1.063673e+00 4.508579e+00 255 255 255
-9.944967e+01 -1.286182e+01 2.090820e+01 111 107 88
-3.412276e+00 -3.410904e+00 7.412675e+00 162 101 45
-1.018185e+02 -1.355551e+01 2.609663e+01 58 60 59
-9.308596e+01 -9.095281e+00 9.098612e+00 111 105 89
-3.006678e+00 -9.890896e-02 -2.190558e+00 168 166 152
-1.020999e+02 -1.342693e+01 2.480923e+01 159 155 130
-3.804549e+00 -2.384779e+00 -7.075299e+00 205 202 195
-9.398002e+01 -1.078597e+01 1.288524e+01 102 101 90
-1.038987e+02 -1.405510e+01 2.763483e+01 181 173 152
-9.964038e+01 -1.222376e+01 2.004123e+01 159 152 134
-9.993126e+01 -1.219781e+01 2.083394e+01 95 97 81
-9.530116e+01 -1.010562e+01 1.403604e+01 139 134 120
-9.530116e+01 -1.010562e+01 1.403604e+01 139 134 120
-6.544421e+01 7.527652e+00 -4.875997e+01 149 158 93
-9.775319e+00 -1.179387e+01 -1.667195e+01 248 247 246
-5.390602e-02 -7.836967e-01 -1.235709e+01 128 112 84
-8.979716e-01 -2.879905e+00 4.671029e+00 238 235 227
-3.865049e-01 -2.442505e+00 3.451116e+00 39 39 46
-4.449531e+01 -1.176755e+01 2.344352e+01 121 120 117
-1.030445e+02 -1.454460e+01 2.743645e+01 56 51 46
-8.828625e+00 5.911367e-01 3.717927e+00 160 186 214
-9.858466e+01 -1.242158e+01 1.930464e+01 69 74 55
-9.282443e+01 -1.004964e+01 1.019920e+01 86 79 76
-7.237969e+00 2.161283e+00 -2.423115e+00 148 190 230
-1.132114e+00 -2.391893e+00 5.446652e+00 80 80 95
-4.075176e-01 -1.864942e+00 3.494557e+00 85 91 101
-6.383933e-01 -5.593064e-01 2.384380e+00 83 80 96
-4.304451e+01 -1.173067e+01 2.352443e+01 254 252 239
-4.500659e+01 -1.199046e+01 2.425495e+01 96 95 94
-7.188541e+01 -1.309988e+01 2.520742e+01 62 69 62
-7.188541e+01 -1.309988e+01 2.520742e+01 62 69 62
-1.014407e+02 -1.300349e+01 2.405294e+01 122 119 102
-9.885456e+01 -9.132781e+00 1.149566e+01 205 194 149
-3.009974e+01 -9.950453e+00 1.755125e+01 122 119 111
-3.009974e+01 -9.950453e+00 1.755125e+01 122 119 111
-6.492833e-01 -9.760715e-01 2.520052e+00 57 55 76
-6.969798e-01 -6.032192e-01 2.466730e+00 251 251 252
-4.517626e+01 -1.158601e+01 2.255883e+01 92 92 93
-1.709879e+01 8.031507e-01 -2.053555e+01 216 216 204
-1.497168e+01 1.993866e+00 -2.480866e+01 175 177 163
-6.879085e+01 -1.221191e+01 2.254198e+01 38 42 45
-6.999811e+01 -1.205144e+01 2.190947e+01 109 112 105
-9.692151e+01 -1.531721e+01 3.289538e+01 39 38 38
-9.289804e+01 -1.095507e+01 1.370701e+01 90 94 90
-1.049581e+02 -1.438344e+01 2.837503e+01 59 52 51
-1.012193e+02 -1.300955e+01 2.310170e+01 126 120 107
-9.273596e+01 -7.796499e+00 6.176886e+00 122 123 91
-1.297966e+01 -9.268541e+00 1.779945e+01 201 171 148
-9.207385e-01 -1.123089e+00 -1.113549e+01 233 234 214
-9.949282e-01 -3.306956e+00 4.790289e+00 35 32 58
-5.479186e+00 -2.790913e+00 -5.619173e+00 70 80 64
-7.649186e-01 -3.005694e+00 4.310118e+00 111 116 135
-2.859993e-01 -1.956005e+00 -8.316940e-02 22 21 29
-2.490303e-01 -1.953476e+00 -7.098878e-02 22 21 29
-5.243058e-01 -2.438167e+00 3.884994e+00 112 110 142
-1.472395e+00 -1.243378e+00 4.553566e+00 57 50 99
-1.774139e+01 4.929936e-01 -1.967250e+01 217 213 207
-1.774139e+01 4.929936e-01 -1.967250e+01 217 213 207
-9.561746e+01 -1.529294e+01 3.332041e+01 40 45 46
-1.024247e+02 -1.478686e+01 3.174557e+01 113 112 85
-9.754153e+01 -9.945115e+00 1.407012e+01 147 133 88
-9.882770e+01 -9.944970e+00 1.437384e+01 204 189 145
5.883250e-01 -3.114419e-01 -1.430595e+01 233 231 226
-1.417551e+00 -1.180377e+00 -1.099775e+01 115 112 108
-8.114061e-01 -3.045168e+00 4.428799e+00 124 127 143
-1.024194e+00 -3.104033e+00 4.848629e+00 200 220 227
-8.484274e-01 -2.779987e+00 4.544833e+00 224 235 243
-5.215140e-01 -2.121832e+00 4.027008e+00 244 243 238
-1.452378e+00 -1.426776e+00 4.206019e+00 87 88 115
-7.051361e-01 -9.709265e-01 2.559789e+00 250 251 254
1.957741e+00 -6.590614e-01 3.993634e+00 122 138 161
-1.691394e+01 9.420881e-01 -2.102386e+01 196 198 178
-4.253230e+01 -9.659406e+00 1.519772e+01 43 40 50
-1.019916e+02 -1.169675e+01 2.125025e+01 224 216 163
-1.169249e+02 -1.475098e+01 3.144894e+01 96 81 56
-6.171939e+01 6.969303e+00 -5.014493e+01 219 215 180
-2.139059e+00 -2.276175e+00 6.362459e+00 152 166 168
-2.367377e+00 -1.907422e+00 6.285017e+00 252 251 249
-2.328849e+00 -2.327757e+00 6.109867e+00 163 168 171
-8.112007e-01 -2.443281e+00 4.633291e+00 214 170 160
1.759137e-01 -1.489359e+00 1.606990e+00 93 51 38
-7.346663e+00 1.499688e+00 6.232657e-01 115 133 152
-8.997251e-01 -2.395268e+00 4.920201e+00 80 80 76
7.825721e-02 -1.745030e+00 1.594420e+00 68 45 33
-1.088845e+00 -2.756164e+00 5.146908e+00 208 199 185
-2.173161e+02 -1.998692e+00 -3.972804e+01 164 168 94
-1.051238e+00 -2.694615e+00 5.076404e+00 211 209 196
-2.294023e+00 -3.287248e+00 6.840278e+00 132 73 39
-2.538362e+00 -1.142548e-01 -2.115940e+00 107 105 90
-8.388329e-01 -8.552140e-01 2.722491e+00 40 41 39
-7.810358e+00 1.950628e+00 -1.090855e+00 29 31 33
-2.248509e+02 -1.551968e+00 -4.475433e+01 53 53 48
-2.332698e+02 -2.113324e+00 -2.659366e+01 85 74 60
