ply
format ascii 1.0
element vertex 909
property float x
property float y
property float z
property uchar diffuse_red
property uchar diffuse_green
property uchar diffuse_blue
end_header
-9.982581e+00 1.065731e+00 2.613426e+00 31 35 44
-7.317519e+00 1.223234e+01 -5.496093e+01 246 237 184
-1.580945e+00 1.274095e+01 -5.181154e+01 238 223 191
-8.724232e-01 1.303263e+01 -5.171748e+01 67 54 27
-1.128968e+01 1.603472e+01 -6.214618e+01 228 226 157
-1.128968e+01 1.603472e+01 -6.214618e+01 228 226 157
-7.821307e+00 1.605452e+01 -6.078586e+01 236 235 161
-1.346096e+01 1.675175e+01 -6.379187e+01 162 152 73
-7.504523e+00 1.725874e+01 -6.243019e+01 165 153 83
-5.070371e+01 3.082731e+01 -1.015757e+02 149 121 102
-4.813951e+01 3.256655e+01 -1.056635e+02 252 227 206
-4.759965e+01 3.483573e+01 -1.063293e+02 240 217 188
-4.905876e+00 -2.414035e+00 6.706687e+00 203 222 242
-2.003238e+00 -3.159157e+00 5.175295e+00 85 82 73
-1.067137e+01 -4.412893e+00 3.638950e+00 132 128 117
-7.637104e+00 2.479626e+00 -3.096042e+00 50 52 48
-2.299991e+00 -3.267163e+00 5.187951e+00 191 201 200
-8.704739e+00 -3.141663e+00 5.146114e+00 14 15 18
-3.596381e-01 -1.542842e+00 2.629537e+00 93 99 103
-2.058116e-01 -1.468157e+00 2.488979e+00 95 100 103
-1.916368e+01 2.905904e+01 -9.502047e+01 186 184 170
-1.916368e+01 2.905904e+01 -9.502047e+01 186 184 170
-1.198742e+00 -1.913863e+00 4.005038e+00 191 200 200
-3.998305e+00 -2.012365e+00 6.341231e+00 177 183 196
-2.479854e+02 5.578904e+01 -2.241897e+02 173 175 177
-3.330084e+00 -3.621131e+00 6.148518e+00 17 25 45
-1.483910e+00 -3.026494e+00 3.208643e+00 123 127 113
-5.142987e+00 -2.413952e+00 6.655129e+00 183 210 239
-4.569900e+00 -1.769682e+00 6.400069e+00 255 254 251
-2.435790e+02 5.836839e+01 -2.201103e+02 241 235 223
-1.155046e+02 3.450043e+01 -1.118119e+02 255 255 255
-9.254353e+00 -4.252590e+00 4.514395e+00 241 240 237
-4.429323e-01 -2.134525e+00 2.756386e+00 233 234 220
-7.191143e-01 -2.166079e+00 3.521515e+00 230 230 212
-1.140238e+01 -2.197400e+00 4.192852e+00 176 196 201
-4.612331e+00 -1.766269e+00 6.680164e+00 255 175 139
-4.530415e+00 -1.697626e+00 6.321241e+00 240 186 176
-5.065382e+00 -1.763703e+00 6.881024e+00 255 255 167
-5.065382e+00 -1.763703e+00 6.881024e+00 255 255 167
-8.994681e+00 1.363230e+00 1.319713e+00 86 106 115
-8.077535e+00 -3.980704e+00 5.176143e+00 27 26 43
-8.363133e+00 -3.483444e+00 5.240471e+00 23 26 46
-8.270148e+00 -3.333466e+00 5.191349e+00 130 146 172
-7.715159e-01 -2.662123e+00 3.459995e+00 112 116 133
-7.974545e-01 -2.295742e+00 3.487542e+00 223 218 209
-6.830484e-01 -1.874685e+00 3.499195e+00 245 246 231
-2.053993e+00 -1.386331e+00 4.752065e+00 37 42 73
-4.075005e+00 -1.362294e+00 6.588491e+00 60 63 99
-1.011446e+01 1.044667e+00 2.482953e+00 111 120 116
-8.412777e+00 -4.853529e+00 4.785113e+00 105 99 108
-8.519968e+00 -4.857507e+00 4.670041e+00 235 235 236
-7.483057e+00 -4.428558e+00 5.268193e+00 128 128 130
-8.342089e+00 -4.139806e+00 5.050186e+00 25 24 35
-9.392099e+00 -4.093731e+00 4.539778e+00 140 135 133
-2.847950e+00 -3.386543e+00 5.606017e+00 179 183 183
-2.814708e-01 -2.423600e+00 2.421026e+00 248 250 246
-4.997751e-01 -2.424372e+00 2.935845e+00 95 112 135
-6.720442e-01 -2.368387e+00 3.313874e+00 105 110 127
-3.612942e-01 -2.245102e+00 2.439049e+00 242 244 233
-5.921493e-01 -1.914450e+00 3.425499e+00 252 255 250
-1.999148e+00 -1.381142e+00 4.513625e+00 137 135 136
-3.369891e+00 9.865662e+00 -4.906105e+01 234 228 203
-3.379253e+00 9.869866e+00 -4.911191e+01 234 228 203
-5.039262e+00 1.023428e+01 -5.015654e+01 162 153 135
-8.502272e+00 1.900472e+00 -1.260224e-01 59 59 64
-2.321128e+01 1.785344e+01 -6.951944e+01 195 192 112
-5.296241e+01 2.900242e+01 -9.830006e+01 176 141 109
-4.898222e+01 3.334776e+01 -1.040442e+02 125 108 96
-4.825450e+01 3.515369e+01 -1.051440e+02 255 238 208
-5.150026e+01 3.354348e+01 -9.923226e+01 247 219 182
-4.673947e+01 3.758301e+01 -1.071242e+02 246 225 198
-3.607262e+00 -1.721128e+00 6.338987e+00 255 255 255
-1.905010e+00 -1.179847e+00 3.952482e+00 200 209 199
-1.631554e+00 -1.020142e+00 3.425101e+00 202 209 202
-1.073834e+00 -6.444445e-01 2.122232e+00 194 202 190
-4.517822e+01 3.546682e+01 -1.069815e+02 253 253 253
-4.917543e+00 -2.086752e+00 6.640393e+00 235 152 117
-6.028574e+00 1.116746e+01 -5.272992e+01 219 220 136
-4.087552e+00 -1.974349e+00 6.629976e+00 206 203 202
-1.290320e+01 3.077997e-01 3.542087e+00 52 59 69
-7.289577e+01 2.893904e+01 -8.815749e+01 135 87 77
-7.816466e-01 -1.858820e+00 3.682125e+00 108 107 113
-7.765274e-01 -1.839662e+00 3.697191e+00 108 107 113
-2.113828e-01 -1.467360e+00 2.358133e+00 106 109 110
-4.997541e+01 2.876398e+01 -1.023753e+02 156 157 148
-5.067215e+01 3.350705e+01 -1.000107e+02 255 252 231
-2.282954e+00 -3.219743e+00 5.205130e+00 217 221 217
-7.458017e+00 -3.628715e+00 5.582016e+00 141 148 151
-8.166504e-01 -8.448953e-01 -1.187819e+01 137 137 140
8.506866e-01 1.859697e-01 -1.513798e+01 212 203 184
8.506866e-01 1.859697e-01 -1.513798e+01 212 203 184
3.115174e+00 1.273181e+00 -1.876236e+01 254 255 255
-8.830549e+00 1.112948e+01 -5.325228e+01 241 237 170
-2.560540e+01 1.741700e+01 -7.011072e+01 251 248 185
-4.778696e+01 2.908593e+01 -1.063002e+02 255 255 233
-4.506120e+01 2.775978e+01 -9.975580e+01 255 255 233
-4.650543e+01 2.941922e+01 -1.059847e+02 251 249 233
-9.073227e+01 2.830068e+01 -9.859320e+01 135 91 81
-3.348634e+00 -3.994765e+00 5.147787e+00 24 23 27
-6.317312e-01 -2.418657e+00 2.939435e+00 243 243 237
-2.155355e+00 -2.578120e+00 5.683954e+00 181 123 94
-1.355365e+00 -1.103120e+00 3.121200e+00 184 193 195
-8.824546e+00 1.025933e+01 -5.222348e+01 206 194 168
-1.181576e+01 1.082624e+01 -5.349828e+01 186 180 158
-1.425947e+01 1.585163e+01 -6.313804e+01 183 177 86
-4.969295e+01 2.887505e+01 -1.038475e+02 254 254 252
-4.542724e+01 3.019197e+01 -1.083526e+02 255 255 255
-7.239731e+01 2.775653e+01 -8.795924e+01 123 74 64
-7.239731e+01 2.775653e+01 -8.795924e+01 123 74 64
-7.344470e+01 2.807596e+01 -8.864091e+01 255 194 155
-4.670488e+01 3.668567e+01 -1.069755e+02 252 229 202
-6.834116e+01 3.133226e+01 -8.581791e+01 252 189 164
-3.376300e+00 -4.110105e+00 5.092549e+00 77 82 76
-3.364342e+00 -3.623143e+00 6.167635e+00 18 21 47
-7.213951e-01 -2.726909e+00 3.400778e+00 252 253 252
-5.289320e-01 -2.600902e+00 2.891089e+00 253 253 254
-7.013945e-01 -2.567928e+00 3.209218e+00 161 173 183
-7.241799e-01 -2.443885e+00 3.395469e+00 227 228 228
-7.316569e-01 -2.437680e+00 3.390924e+00 227 228 228
-2.955634e-01 -2.077391e+00 2.436112e+00 120 127 165
-7.311822e-01 -2.168906e+00 3.429475e+00 251 251 243
-6.870139e-01 -1.896845e+00 3.525025e+00 255 253 253
-2.138148e+00 -1.267764e+00 4.932307e+00 28 33 67
-2.704272e-01 -3.102187e-01 3.290267e-01 255 255 253
-8.557673e+00 1.059339e+01 -5.226908e+01 175 171 155
-3.900914e+00 1.249229e+01 -5.447471e+01 236 243 144
-2.058266e+01 1.576642e+01 -6.641247e+01 221 210 134
-2.058266e+01 1.576642e+01 -6.641247e+01 221 210 134
-2.605286e+01 1.598577e+01 -6.756678e+01 248 238 173
-2.942491e+01 1.686018e+01 -6.788579e+01 231 241 138
-2.615965e+01 1.760936e+01 -7.033231e+01 185 161 115
-2.572806e+01 1.877983e+01 -7.187409e+01 254 246 200
-8.737441e+00 1.818385e+01 -6.507504e+01 212 194 120
-1.512183e+01 1.844696e+01 -6.725847e+01 160 135 62
-1.966255e+01 1.968127e+01 -7.023245e+01 218 210 164
-4.824618e+01 2.812139e+01 -1.050435e+02 247 235 189
-2.014029e+01 2.668909e+01 -9.637552e+01 209 204 181
-4.777829e+01 2.831317e+01 -1.054157e+02 138 120 106
-9.153387e+01 2.774565e+01 -9.907078e+01 246 179 150
-2.499203e+01 2.955876e+01 -9.881322e+01 198 195 179
-3.821534e+01 3.381703e+01 -1.042623e+02 216 209 194
-3.821534e+01 3.381703e+01 -1.042623e+02 216 209 194
-4.702454e+01 3.637799e+01 -1.065152e+02 153 121 107
-6.051890e+01 2.497218e+01 -6.214452e+01 255 250 221
-7.960381e+00 -3.855053e+00 5.367351e+00 162 169 174
-1.632123e+01 -4.346873e+00 -1.042437e+00 143 140 105
-7.558477e+00 -3.525861e+00 5.542640e+00 37 37 50
-3.733494e-01 -2.267310e+00 2.536320e+00 246 247 243
-8.169061e-01 -1.977105e+00 3.783132e+00 254 255 250
-1.796301e+00 -1.173906e+00 3.689844e+00 30 29 39
-5.198766e+00 1.023981e+01 -5.020507e+01 182 172 149
-8.780567e+00 1.341477e+01 -5.778244e+01 253 245 176
-1.812085e+01 1.399137e+01 -6.247438e+01 255 249 175
-3.030477e+00 1.345345e+01 -5.489057e+01 202 201 122
-2.792170e+01 1.541781e+01 -6.767622e+01 232 209 153
-4.365090e+01 1.698111e+01 -7.600646e+01 244 239 227
-2.950066e+01 1.577174e+01 -6.837076e+01 64 57 36
-2.932905e+01 1.569407e+01 -6.788079e+01 64 57 36
-2.700951e+01 1.613763e+01 -6.878670e+01 255 245 196
-2.777344e+01 1.669532e+01 -6.800280e+01 239 248 176
-2.755235e+01 1.708368e+01 -6.800374e+01 223 243 118
-4.021364e+01 1.990979e+01 -7.740192e+01 177 187 117
-2.721486e+01 1.885595e+01 -7.023253e+01 245 255 191
-1.098327e+01 1.825247e+01 -6.548014e+01 250 242 168
-1.961011e+01 1.926463e+01 -6.964087e+01 248 243 178
-8.948792e+01 2.790309e+01 -9.780764e+01 228 162 140
-2.076311e+01 2.192713e+01 -7.013909e+01 252 250 231
-6.061704e+01 2.261237e+01 -6.291102e+01 255 252 220
-4.712361e+01 3.490453e+01 -1.068900e+02 254 230 202
-4.712361e+01 3.490453e+01 -1.068900e+02 254 230 202
-7.153239e+01 3.002094e+01 -8.713603e+01 255 201 151
-7.367736e+01 3.156865e+01 -8.793345e+01 150 92 72
-7.745911e-01 -2.670558e+00 3.497829e+00 122 124 142
-8.299253e-01 -2.602922e+00 3.527883e+00 216 232 229
-1.164404e+01 -3.445506e+00 3.761357e+00 78 83 87
-6.694257e-01 -2.357343e+00 3.216079e+00 116 119 139
-8.587792e-01 -2.164374e+00 3.845404e+00 244 196 195
-8.586256e-01 -2.165590e+00 3.848939e+00 244 196 195
-9.629701e-01 -7.723459e-01 -1.182625e+01 235 235 232
-1.247094e+01 1.055839e+01 -5.408036e+01 239 229 196
-1.340964e+01 1.060681e+01 -5.448874e+01 242 232 193
-1.732218e+01 1.095686e+01 -5.667814e+01 240 235 205
-8.431466e+00 1.945482e+00 -1.871952e-01 62 67 77
-1.593366e+01 1.219438e+01 -5.804681e+01 197 212 117
-1.882654e+01 1.380761e+01 -6.236755e+01 255 255 197
-2.624569e+01 1.432761e+01 -6.563900e+01 255 251 210
-1.873233e+00 1.281553e+01 -5.200826e+01 74 58 32
-8.866238e+00 1.379877e+01 -5.839342e+01 209 203 140
-8.866238e+00 1.379877e+01 -5.839342e+01 209 203 140
2.483789e-01 1.297978e+01 -5.162433e+01 215 217 147
-6.910129e-01 1.288143e+01 -5.116783e+01 221 220 171
-4.389045e+00 1.391921e+01 -5.665198e+01 182 182 111
-2.819541e+01 1.522302e+01 -6.740767e+01 255 221 179
-3.024897e+01 1.544787e+01 -6.794185e+01 60 62 20
-3.019952e+01 1.542892e+01 -6.782438e+01 60 62 20
1.074044e+00 1.360745e+01 -5.300034e+01 255 255 197
-2.436633e+01 1.657338e+01 -6.851134e+01 254 250 183
-2.439591e+01 1.658824e+01 -6.860017e+01 254 250 183
-3.040483e+01 1.629473e+01 -6.790365e+01 220 239 149
-4.393042e+01 1.815698e+01 -7.725591e+01 136 181 203
-1.369814e+01 1.636087e+01 -6.397067e+01 165 154 68
-2.745096e+01 1.755910e+01 -6.867070e+01 224 240 139
-1.594952e+01 1.724648e+01 -6.565232e+01 200 179 122
-1.594952e+01 1.724648e+01 -6.565232e+01 200 179 122
-1.109116e+01 1.719992e+01 -6.401210e+01 255 242 181
-2.968308e+01 1.817347e+01 -7.016731e+01 217 236 149
-2.727083e+01 1.819183e+01 -6.951574e+01 231 248 161
-2.972589e+01 1.835246e+01 -7.002728e+01 217 244 131
-2.863124e+01 1.839125e+01 -6.932812e+01 231 239 159
-2.996034e+01 1.971519e+01 -7.153917e+01 255 255 178
-4.899006e+01 2.815407e+01 -1.047371e+02 250 239 195
-4.630006e+01 3.007461e+01 -1.087341e+02 255 244 202
-7.185435e+01 2.838274e+01 -8.767827e+01 252 183 155
-4.651412e+01 3.368136e+01 -1.080140e+02 255 247 218
-5.629203e+01 3.002607e+01 -9.106915e+01 255 239 200
-7.406527e+01 2.968367e+01 -8.852173e+01 178 109 78
-7.350473e+01 2.966394e+01 -8.818636e+01 251 186 154
-5.248328e+01 3.244246e+01 -9.776667e+01 146 123 72
-4.691079e+01 3.527612e+01 -1.070287e+02 143 109 92
-9.630610e+01 3.542144e+01 -1.003884e+02 254 198 165
-3.157101e+00 -3.554380e+00 5.777008e+00 18 21 38
-3.065320e+00 -3.326188e+00 5.817461e+00 15 15 18
-8.246171e-01 -2.811869e+00 3.594275e+00 253 253 240
-3.432249e-01 -2.412042e+00 2.483863e+00 115 115 125
-4.502001e-01 -2.397411e+00 2.696891e+00 243 248 243
-5.765067e-01 -2.297416e+00 3.107230e+00 132 132 141
-7.620846e-01 -2.235723e+00 3.493587e+00 121 115 141
-8.368154e+00 -2.930028e+00 5.218059e+00 162 154 133
-4.657827e+00 -2.122262e+00 6.621237e+00 255 250 174
7.012271e-01 1.721894e-01 -1.488873e+01 248 248 242
-1.342836e+00 -1.010080e+00 3.324038e+00 215 215 215
-3.932351e+00 -1.471975e+00 6.636037e+00 157 152 156
-3.932351e+00 -1.471975e+00 6.636037e+00 157 152 156
-1.335786e+00 -9.367202e-01 3.411977e+00 245 245 246
-1.182652e+00 -7.599571e-01 3.035553e+00 193 192 188
-5.125316e-01 -2.144398e-01 1.291099e+00 255 255 249
-1.756638e+01 3.243700e-01 1.973809e+00 167 184 209
-1.177051e+00 9.645571e+00 -4.753143e+01 229 221 190
-4.407236e+00 9.972607e+00 -4.964776e+01 229 217 183
-9.906390e+00 1.025075e+01 -5.260278e+01 243 235 201
-4.975106e+00 1.007506e+01 -4.999291e+01 237 224 196
-1.419602e+01 1.066481e+01 -5.496587e+01 240 227 188
-1.504190e+01 1.075727e+01 -5.544040e+01 244 230 197
-1.350637e+01 1.109366e+01 -5.467772e+01 205 192 163
-1.809001e+01 1.153579e+01 -5.723736e+01 188 178 152
-2.668583e-01 1.126288e+01 -5.071697e+01 230 207 164
-2.802128e+00 1.137645e+01 -5.201514e+01 147 128 60
-8.691446e+00 1.790560e+00 3.064303e-01 57 74 84
-2.419299e+01 1.251449e+01 -6.165244e+01 200 193 123
-2.419299e+01 1.251449e+01 -6.165244e+01 200 193 123
-1.624477e+00 1.243931e+01 -5.138289e+01 101 88 44
-2.095426e+01 1.413751e+01 -6.361725e+01 255 245 176
-2.854381e+01 1.509495e+01 -6.765259e+01 246 229 188
-8.200470e+00 1.415806e+01 -5.862531e+01 242 239 160
-4.177006e+01 1.675894e+01 -7.584653e+01 223 238 239
-4.667705e+01 1.679628e+01 -7.573100e+01 205 239 230
-3.016635e+01 1.560560e+01 -6.779793e+01 228 242 163
-4.697902e+01 1.690667e+01 -7.568839e+01 235 239 225
-4.295069e-01 1.351642e+01 -5.189597e+01 91 82 56
-3.047499e+01 1.582271e+01 -6.739474e+01 196 213 137
-1.447252e+01 1.557463e+01 -6.306088e+01 172 166 87
-1.446296e+01 1.555226e+01 -6.302209e+01 172 166 87
6.046363e-01 1.461062e+01 -5.483337e+01 234 235 146
-4.679720e+01 1.782975e+01 -7.649791e+01 246 242 232
-3.071297e+01 1.638987e+01 -6.813917e+01 36 44 0
-2.417224e+01 1.665664e+01 -6.847821e+01 255 250 193
-2.507986e+01 1.688856e+01 -6.927229e+01 201 183 116
-3.010594e+01 1.646907e+01 -6.791763e+01 239 252 159
-3.011559e+01 1.647153e+01 -6.793181e+01 239 252 159
-2.495646e+01 1.698132e+01 -6.940852e+01 193 186 96
-3.065152e+01 1.656910e+01 -6.804299e+01 223 247 143
-7.883189e+00 1.616665e+01 -6.129773e+01 246 242 165
-7.850243e+00 1.612930e+01 -6.113320e+01 246 242 165
-1.529640e+01 1.661504e+01 -6.448197e+01 254 241 180
-2.735447e+01 1.715926e+01 -6.846145e+01 217 238 143
-2.924469e+01 1.715064e+01 -6.817017e+01 117 125 56
-1.669905e+01 1.695051e+01 -6.549686e+01 255 252 196
9.497483e-01 1.543722e+01 -5.551359e+01 234 221 150
-2.697531e+01 1.778406e+01 -6.977406e+01 124 130 64
-4.488738e+01 1.933439e+01 -7.759354e+01 190 231 235
-1.541804e+01 1.741191e+01 -6.570850e+01 143 125 55
2.280149e-01 1.607443e+01 -5.701220e+01 204 199 116
2.280149e-01 1.607443e+01 -5.701220e+01 204 199 116
-4.099637e+01 1.973004e+01 -7.736770e+01 249 254 187
-2.172527e+01 1.843160e+01 -6.944398e+01 209 197 117
-2.743660e+01 1.868186e+01 -7.002529e+01 242 255 149
-2.678866e+01 1.884250e+01 -7.028207e+01 239 255 138
-3.970209e+01 2.028056e+01 -7.774443e+01 237 242 176
-3.147026e+01 1.917570e+01 -7.133427e+01 97 95 49
-2.025327e+01 1.901648e+01 -6.949537e+01 253 254 170
-2.758893e+01 1.894967e+01 -6.978610e+01 237 251 166
3.160625e-01 1.735314e+01 -5.912610e+01 249 251 159
-1.777590e+01 3.408649e+00 1.111424e+00 136 177 205
-4.550226e+01 2.281563e+01 -8.376814e+01 245 225 172
-4.799355e+01 2.852444e+01 -1.064684e+02 127 110 87
-5.099801e+01 2.818017e+01 -1.010349e+02 253 240 200
-4.628483e+01 3.044842e+01 -1.092685e+02 137 126 106
-4.629284e+01 3.105337e+01 -1.090685e+02 141 121 109
-5.112306e+01 2.921433e+01 -1.007510e+02 255 242 198
-7.738670e+01 2.795665e+01 -9.090656e+01 252 191 167
-5.656128e+01 2.807397e+01 -9.150041e+01 255 245 203
-5.098829e+01 3.164122e+01 -1.011735e+02 164 135 114
-5.664664e+01 2.939932e+01 -9.113696e+01 254 231 194
-5.321047e+01 3.142592e+01 -9.684358e+01 129 114 113
-9.790533e+01 3.374265e+01 -1.014427e+02 255 201 165
-6.177856e+01 2.333792e+01 -6.329301e+01 222 212 158
-6.200539e+01 2.335456e+01 -6.316182e+01 121 109 56
-5.653919e+01 3.104742e+01 -9.028773e+01 255 242 212
-5.372665e+01 3.293045e+01 -9.563783e+01 129 123 139
-5.372665e+01 3.293045e+01 -9.563783e+01 129 123 139
-4.942690e+01 3.538377e+01 -1.028165e+02 119 114 101
1.476731e+00 3.246950e-01 -1.541891e+01 247 247 234
-2.426966e+00 9.422347e+00 -4.846017e+01 225 218 190
-5.395858e+01 3.761739e+01 -1.069155e+02 117 105 87
-5.395858e+01 3.761739e+01 -1.069155e+02 117 105 87
-1.956637e+01 1.999785e+01 -7.004770e+01 234 227 213
-2.238335e+01 -2.913835e+00 -1.307498e+00 193 203 205
-6.233375e+01 2.251146e+01 -8.472863e+01 255 255 254
-6.129034e+01 2.105250e+01 -8.440048e+01 248 249 228
-6.000849e+01 1.672819e+01 -7.838623e+01 76 75 49
-6.085840e+01 2.239877e+01 -8.513170e+01 117 99 99
-6.124861e+01 2.250516e+01 -8.478184e+01 219 212 175
-6.088767e+01 1.685327e+01 -7.923428e+01 67 69 26
-6.165216e+01 2.057916e+01 -8.333370e+01 254 249 225
-6.163395e+01 2.101523e+01 -8.317582e+01 251 241 206
-6.781326e+01 2.284913e+01 -8.707291e+01 171 165 120
-6.781326e+01 2.284913e+01 -8.707291e+01 171 165 120
-5.319785e+01 2.846191e+01 -9.785801e+01 155 149 129
-5.056836e+01 3.220286e+01 -1.018590e+02 134 123 115
-1.454533e+01 2.622719e+00 1.739393e+00 137 148 109
-8.373736e+00 -5.034535e+00 4.807920e+00 158 151 149
-7.110427e+00 -3.057962e+00 5.981252e+00 117 112 101
-1.245084e+01 7.768676e-01 3.880363e+00 183 198 214
-8.008266e+01 2.389884e+01 -9.369717e+01 72 64 62
-8.317299e+01 2.357115e+01 -9.508933e+01 90 91 79
-9.837416e+01 2.488391e+01 -1.044927e+02 128 124 108
-2.252094e+01 -2.478270e+00 -1.394164e+00 27 26 29
-2.370094e+01 -2.276652e+00 -1.651618e+00 193 194 198
-9.688840e+01 2.169922e+01 -1.039146e+02 229 225 207
-2.243393e+01 -2.704711e+00 -1.319248e+00 28 30 43
-9.837992e+01 2.008869e+01 -1.031478e+02 156 153 139
-2.413891e+01 -3.137778e+00 -2.432108e+00 165 170 164
-6.051931e+01 1.495180e+01 -6.550356e+01 246 226 190
-9.666984e+01 2.491637e+01 -1.028364e+02 125 118 100
-9.666984e+01 2.491637e+01 -1.028364e+02 125 118 100
-5.042708e+01 3.277387e+01 -1.021523e+02 239 239 239
-2.444096e+01 -1.190386e+00 -7.986567e-01 156 148 143
-9.525089e+00 9.984133e-01 2.001226e+00 64 68 94
-9.829821e+01 2.203750e+01 -1.046808e+02 236 236 215
-7.560298e+00 -3.678182e+00 5.676370e+00 158 167 175
-7.544974e+00 -4.591212e+00 5.162893e+00 111 112 113
-2.383967e+01 -3.613303e+00 -2.046147e+00 133 133 136
-2.389906e+01 -3.314683e+00 -2.100611e+00 238 236 231
-2.422256e+01 -2.776312e+00 -2.081077e+00 245 243 248
-2.429978e+01 -2.338314e+00 -2.021791e+00 228 224 221
-2.429978e+01 -2.338314e+00 -2.021791e+00 228 224 221
-2.383861e+01 -2.033206e+00 -1.701986e+00 219 224 222
-8.523609e+01 2.514163e+01 -9.627440e+01 227 168 133
-8.295425e+01 2.997904e+01 -9.383799e+01 232 170 142
-9.481875e+01 2.370507e+01 -1.021158e+02 155 153 138
-1.740126e+01 -2.934151e+00 1.241313e+00 55 58 59
-8.531944e+00 1.122077e+00 2.072426e+00 187 195 195
-9.159161e+00 1.491332e+00 1.024524e+00 61 72 85
-6.049316e+01 1.948295e+01 -6.416206e+01 254 241 199
-6.068315e+01 2.244318e+01 -6.290471e+01 249 234 191
-2.496610e+02 5.482522e+01 -2.250986e+02 254 254 252
-2.489210e+02 5.630942e+01 -2.239105e+02 253 253 248
-4.892604e+01 3.150176e+01 -1.043974e+02 145 127 121
-4.627996e+01 3.112411e+01 -1.081572e+02 255 249 223
-4.746803e+01 3.299349e+01 -1.054464e+02 250 221 189
-5.015207e+01 2.824231e+01 -1.032635e+02 249 243 218
-2.461857e+02 5.777376e+01 -2.219191e+02 187 186 186
-2.461857e+02 5.777376e+01 -2.219191e+02 187 186 186
-2.470435e+02 6.575136e+01 -2.202134e+02 205 202 199
-1.518354e+00 -2.730384e+00 3.860054e+00 107 115 101
-1.681900e+01 1.072193e+01 -5.655087e+01 199 190 164
-2.817727e+01 1.820901e+01 -6.963919e+01 232 239 162
-1.838260e+01 1.883979e+01 -6.853814e+01 216 207 132
-2.529499e+02 5.515194e+01 -2.263891e+02 253 251 242
-5.024579e+01 2.807629e+01 -1.027275e+02 124 111 101
-4.425981e+01 2.858428e+01 -9.706461e+01 145 119 105
-5.021953e+01 3.066613e+01 -1.026196e+02 254 254 245
-5.683904e+01 2.813600e+01 -9.107172e+01 255 252 218
-5.247050e+01 3.197419e+01 -9.837054e+01 251 219 175
-1.363025e+01 -7.759576e+00 1.247872e+01 150 154 153
-1.570368e+00 -2.154564e+00 4.592542e+00 240 242 241
-4.316957e+01 2.142456e+01 -8.252115e+01 154 159 90
-3.710301e+01 1.773925e+01 -7.531742e+01 240 239 161
-3.710301e+01 1.773925e+01 -7.531742e+01 240 239 161
-1.962161e+00 -3.024553e+00 4.062346e+00 29 29 29
-4.850881e+00 -2.418841e+00 6.783611e+00 202 227 247
-2.086459e+00 -1.846229e+00 5.054332e+00 191 211 224
-1.987470e+00 -1.294719e+00 4.676300e+00 151 162 173
-2.077388e+00 -1.294950e+00 4.551003e+00 151 162 173
-1.556450e+00 -1.019896e+00 3.531163e+00 205 210 196
-3.282665e+00 -2.965427e+00 6.603662e+00 192 126 50
-1.533518e-01 -1.723620e+00 2.273616e+00 116 119 126
-1.992853e-01 -1.687538e+00 2.577119e+00 242 242 243
-2.645887e+01 1.600553e+01 -6.866247e+01 237 229 159
-4.382910e+01 1.650690e+01 -7.512144e+01 185 174 125
-4.051485e+01 1.790825e+01 -7.718377e+01 249 238 185
-1.551664e+01 8.810797e-01 1.090625e+01 255 253 254
-1.551664e+01 8.810797e-01 1.090625e+01 255 253 254
-3.860844e+01 1.903346e+01 -7.801351e+01 254 242 194
-5.109598e+01 2.412486e+01 -8.780689e+01 255 250 210
-7.296120e+01 2.896374e+01 -8.823022e+01 136 92 81
-4.731478e+00 -7.400763e+00 1.202563e+01 183 185 177
-5.935049e-01 -4.024619e-01 1.360857e+00 241 242 237
-4.796509e+01 2.772398e+01 -1.032182e+02 252 242 194
-4.492359e+01 3.061995e+01 -1.095999e+02 249 248 232
-7.891849e-01 -2.770727e+00 3.609043e+00 252 252 249
-4.558894e-01 -2.537123e+00 2.761084e+00 243 243 239
-6.896033e-01 -2.570140e+00 3.223918e+00 154 163 176
-4.138138e-01 -2.400270e+00 2.520500e+00 160 160 168
-9.176728e-01 -2.537392e+00 3.749815e+00 255 253 248
-4.550583e-01 -2.144355e+00 2.718040e+00 255 255 255
-2.348806e+00 -1.364501e+00 -9.863480e+00 234 231 227
-1.099220e+00 -8.084510e-01 -1.168243e+01 253 254 249
-1.099220e+00 -8.084510e-01 -1.168243e+01 253 254 249
-1.855983e-02 -1.647246e+00 3.383654e-01 127 128 129
-4.097650e-01 -1.711867e+00 2.845824e+00 252 252 254
-1.356027e+00 -1.107485e+00 3.152675e+00 200 208 214
-3.185363e+01 1.532334e+01 -6.899569e+01 54 55 42
-3.218292e+01 1.600907e+01 -6.969110e+01 188 208 110
-7.900944e+01 2.848504e+01 -9.206310e+01 132 88 82
-7.900944e+01 2.848504e+01 -9.206310e+01 132 88 82
-7.870011e+01 2.890171e+01 -9.148470e+01 133 85 74
-2.013061e+00 -6.447837e+00 8.886045e+00 133 130 128
-5.074188e-01 -2.434324e+00 2.800928e+00 116 131 156
-1.074688e+00 -2.444552e+00 3.967908e+00 67 77 83
-8.057389e-01 -2.362663e+00 3.582559e+00 253 251 253
-7.331073e-01 -2.172803e+00 3.424375e+00 253 253 253
-2.082391e+00 -1.705545e+00 4.784481e+00 255 255 251
-1.808827e+00 -1.175165e+00 3.679462e+00 26 26 37
-1.154643e+00 -6.985436e-01 2.946610e+00 27 32 45
-1.005679e+00 -4.677505e-01 1.931639e+00 26 29 40
-8.360216e-01 -4.105426e-01 1.858675e+00 30 33 42
-1.301941e+01 1.063762e+01 -5.419855e+01 237 228 199
-4.351210e+01 1.496094e+01 -7.313000e+01 251 243 217
-4.665513e+01 1.629133e+01 -7.532691e+01 253 255 194
-4.659930e+01 1.628246e+01 -7.524832e+01 253 255 194
-4.634586e+01 1.656472e+01 -7.607579e+01 167 135 97
-2.056670e+01 1.728562e+01 -6.765083e+01 254 247 202
-3.160447e+01 1.885519e+01 -7.176885e+01 215 208 151
-4.251358e+01 2.970603e+01 -1.069145e+02 237 232 201
-4.950991e+01 3.046879e+01 -1.050682e+02 253 244 218
-1.041422e+02 3.247730e+01 -1.055705e+02 229 163 135
-7.949866e+01 2.969657e+01 -9.180317e+01 236 188 156
4.444369e+00 -2.830013e+00 -3.333791e+00 243 247 242
-2.598975e-01 -2.368038e+00 2.313571e+00 129 129 140
-5.927052e-01 -1.826352e+00 3.312551e+00 254 254 252
1.072503e+00 -1.085513e+00 6.948354e+00 26 28 44
1.072503e+00 -1.085513e+00 6.948354e+00 26 28 44
1.140784e-01 -8.133176e-01 4.263553e+00 27 28 32
-1.633949e+01 1.059446e+01 -5.615230e+01 252 254 251
-1.779624e+01 1.363056e+01 -6.184930e+01 208 208 115
-4.210753e+01 1.452096e+01 -7.198180e+01 229 218 149
-4.586668e+01 1.601742e+01 -7.509194e+01 255 254 225
-4.498497e+01 1.621007e+01 -7.544139e+01 252 249 201
-4.813464e+01 1.725980e+01 -7.594875e+01 250 232 163
-4.058132e+01 1.933948e+01 -7.759061e+01 249 248 185
-2.728982e+01 1.819582e+01 -6.956520e+01 231 248 157
-5.301752e+01 2.036813e+01 -8.163441e+01 255 253 194
-2.673504e+01 1.974773e+01 -7.171732e+01 120 127 63
-5.022006e+01 2.861180e+01 -1.024394e+02 111 102 99
-5.190718e+01 2.853868e+01 -1.000982e+02 255 238 178
-5.076957e+01 3.179062e+01 -1.017697e+02 255 253 226
-6.926964e+00 -4.793274e+00 5.581632e+00 117 114 104
-9.231220e-01 -2.688642e+00 3.745871e+00 238 243 236
-5.566599e-01 -2.531579e+00 2.971370e+00 126 131 145
-3.201698e-01 -2.370897e+00 2.412854e+00 131 136 144
-8.678429e-01 -2.457379e+00 3.671973e+00 131 127 150
-8.588882e-01 -2.455133e+00 3.682024e+00 131 127 150
-1.545067e+00 -1.835610e+00 1.488817e+00 133 132 147
-6.449580e-01 -1.883949e+00 3.394134e+00 133 132 147
-4.383600e-01 -1.709627e+00 2.909160e+00 255 255 251
-2.111713e+00 -1.390911e+00 4.690430e+00 23 35 75
-1.209176e+00 -8.581446e-01 3.135359e+00 200 201 191
-1.114563e+00 -8.135236e-01 2.982619e+00 201 202 187
-1.324399e+00 -8.493289e-01 3.350932e+00 206 206 200
-3.837109e-01 6.497340e-01 -1.071775e+00 250 249 239
-9.540524e+00 4.667689e+00 -3.311618e+01 253 253 234
-9.540524e+00 4.667689e+00 -3.311618e+01 253 253 234
-1.887614e+01 1.111898e+01 -5.754638e+01 243 235 206
-3.085727e+01 1.061221e+01 -5.840305e+01 162 157 84
-1.814330e+01 1.399756e+01 -6.253790e+01 255 254 182
-4.494107e+01 1.560796e+01 -7.445695e+01 255 240 190
-2.820916e+01 1.522339e+01 -6.744040e+01 253 222 177
-4.716155e+01 1.586615e+01 -7.485825e+01 255 255 229
-4.440237e+01 1.616382e+01 -7.551151e+01 254 236 211
-4.222666e+01 1.642343e+01 -7.539156e+01 187 160 113
-3.220990e+01 1.610271e+01 -6.920419e+01 224 217 129
-4.145345e+01 1.738221e+01 -7.605093e+01 241 219 159
-4.278565e+01 1.736246e+01 -7.594977e+01 255 252 202
-4.689438e+01 1.723883e+01 -7.580121e+01 191 185 121
-4.211072e+01 1.815194e+01 -7.620112e+01 211 223 143
-3.947291e+01 1.869284e+01 -7.745445e+01 255 245 188
-2.657742e+01 1.798911e+01 -7.071748e+01 254 236 156
-2.576649e+01 1.846219e+01 -7.136460e+01 255 255 203
-4.246567e+01 1.924778e+01 -7.708152e+01 255 251 186
-5.214452e+01 2.073442e+01 -8.210481e+01 225 222 143
-3.985659e+01 2.084951e+01 -8.050480e+01 255 239 180
-3.007544e+01 1.922921e+01 -7.114780e+01 251 253 159
-3.007544e+01 1.922921e+01 -7.114780e+01 251 253 159
-4.794805e+01 2.124544e+01 -8.190657e+01 154 122 85
-2.644201e+01 1.961987e+01 -7.165717e+01 226 243 160
-5.236067e+01 2.188057e+01 -8.344146e+01 218 241 146
-2.888682e+01 1.991856e+01 -7.161123e+01 246 254 141
-6.230265e+01 2.261388e+01 -8.624018e+01 125 117 114
-4.682233e+01 3.032652e+01 -1.080301e+02 247 226 202
-5.205868e+01 2.946761e+01 -1.000851e+02 255 236 173
-7.852111e+01 2.788416e+01 -9.176692e+01 254 198 179
-8.097342e+01 2.955056e+01 -9.281206e+01 255 209 182
-5.082911e+01 3.204163e+01 -1.009489e+02 255 239 202
-1.011210e+02 3.298801e+01 -1.036882e+02 236 166 140
5.331801e+00 -5.939702e+00 8.111104e+00 62 66 56
1.072268e+00 -2.586222e+00 -4.926890e+00 182 183 174
-2.852314e+00 -3.388178e+00 5.600315e+00 210 211 212
-6.696950e-01 -2.610104e+00 3.245861e+00 125 127 135
-6.483103e-01 -2.582854e+00 3.151283e+00 144 144 146
-5.910167e-01 -2.544932e+00 3.040346e+00 130 137 152
-5.225323e-01 -2.402144e+00 2.854997e+00 125 135 160
-4.294352e-01 -2.367625e+00 2.630302e+00 125 131 148
-6.876290e-01 -2.317675e+00 3.275647e+00 249 255 255
-7.963001e-01 -2.249914e+00 3.599461e+00 128 132 154
-4.498275e-01 -2.037479e+00 2.794972e+00 255 255 250
-3.728681e-01 -1.996662e+00 2.626442e+00 135 135 161
-2.961782e-01 -4.953450e-01 -1.267753e+01 255 254 255
-5.432734e-01 -1.858950e+00 3.161378e+00 254 254 255
-2.305131e-01 -1.730372e+00 2.369120e+00 255 255 255
-6.500950e-01 -1.833376e+00 3.444782e+00 253 254 255
-4.690774e-01 -1.731377e+00 3.038052e+00 254 254 255
2.093614e+00 4.711671e-01 -1.586634e+01 147 143 122
5.039505e+00 -6.565373e-01 7.501425e-01 168 162 162
-1.028823e+01 -2.487872e+00 4.791987e+00 103 102 97
-1.299037e+00 -8.349833e-01 3.273519e+00 35 32 38
-1.210704e+00 -7.812602e-01 3.106973e+00 38 36 41
-1.207021e+00 -7.815424e-01 3.113434e+00 38 36 41
-1.142728e+01 3.932448e+00 -3.058787e+01 166 160 145
-1.062446e+01 4.169223e+00 -3.165680e+01 240 234 215
-1.648047e+01 1.201574e+01 -5.807462e+01 216 191 135
-8.320432e+00 1.966197e+00 -5.002303e-01 27 34 35
-4.456489e+01 1.376006e+01 -7.222571e+01 255 239 194
-1.952985e+01 1.395560e+01 -6.269501e+01 255 251 194
-3.029998e+01 1.471821e+01 -6.860764e+01 255 249 182
-2.991690e+01 1.522236e+01 -6.825391e+01 93 88 35
-4.484846e+01 1.583298e+01 -7.474296e+01 255 240 183
-4.334235e+01 1.637903e+01 -7.579387e+01 255 254 214
-4.502071e+01 1.663961e+01 -7.570593e+01 222 230 160
-4.612719e+01 1.678570e+01 -7.569335e+01 222 230 147
-4.558042e+01 1.693472e+01 -7.572695e+01 235 243 160
-4.941804e+01 1.677782e+01 -7.456363e+01 254 253 185
-4.201647e+01 1.746833e+01 -7.613715e+01 240 232 151
-4.203508e+01 1.747607e+01 -7.617689e+01 240 232 151
-2.860164e+01 1.626948e+01 -6.749527e+01 253 243 166
-4.497673e+01 1.733624e+01 -7.597927e+01 232 248 186
-2.877730e+01 1.661721e+01 -6.756994e+01 219 245 146
-4.706773e+01 1.769739e+01 -7.620417e+01 167 145 90
-2.847253e+01 1.664722e+01 -6.759072e+01 114 129 54
-2.842307e+01 1.662600e+01 -6.748131e+01 114 129 54
-4.179590e+01 1.801350e+01 -7.648805e+01 243 245 163
-4.179590e+01 1.801350e+01 -7.648805e+01 243 245 163
-4.951935e+01 1.752713e+01 -7.557064e+01 142 136 84
-4.898752e+01 1.769376e+01 -7.561537e+01 238 242 182
-2.714005e+01 1.717472e+01 -6.891123e+01 229 252 152
-4.632730e+01 1.812032e+01 -7.650067e+01 250 254 201
-4.762728e+01 1.798370e+01 -7.612995e+01 247 244 180
-4.295584e+01 1.865843e+01 -7.659829e+01 166 159 87
-2.667731e+01 1.802044e+01 -7.034882e+01 243 251 147
-4.312377e+01 1.871330e+01 -7.648650e+01 255 252 200
-4.109951e+01 1.908751e+01 -7.729743e+01 241 237 180
-4.485730e+01 1.895158e+01 -7.716233e+01 232 243 172
-2.696769e+01 1.839584e+01 -7.023707e+01 237 252 160
-2.671407e+01 1.855303e+01 -7.066769e+01 250 255 168
-5.179085e+01 2.044873e+01 -8.198878e+01 235 241 175
-2.680781e+01 1.885632e+01 -7.108987e+01 105 118 28
-3.126208e+01 1.878046e+01 -7.128365e+01 222 229 146
-4.386948e+01 1.997132e+01 -7.734340e+01 254 246 183
-5.202105e+01 2.145590e+01 -8.316035e+01 226 243 152
-2.903835e+01 1.976611e+01 -7.183892e+01 84 100 17
-5.048693e+01 2.205488e+01 -8.409253e+01 255 253 185
-6.291602e+01 2.342178e+01 -8.899846e+01 251 243 182
-4.725058e+01 2.945643e+01 -1.074518e+02 252 244 196
-6.018760e+01 2.508414e+01 -8.602131e+01 255 250 227
-5.175730e+01 2.924566e+01 -1.004615e+02 254 229 187
-4.641338e+01 3.231376e+01 -1.089159e+02 146 127 115
-4.740421e+01 3.197558e+01 -1.069527e+02 239 225 184
-5.652069e+01 2.815666e+01 -9.220790e+01 255 247 197
-5.681984e+01 2.812860e+01 -9.104063e+01 255 248 212
-4.832728e+01 3.233828e+01 -1.044439e+02 238 222 203
-5.684142e+01 2.989151e+01 -9.132313e+01 255 240 205
-5.056473e+01 3.277430e+01 -1.016754e+02 151 143 147
-6.828929e-01 -2.317123e+00 3.279814e+00 207 209 208
-5.894485e+01 2.370622e+01 -8.837591e+01 254 246 208
1.363302e+01 9.661275e+00 -4.218005e+01 238 231 162
-6.048154e+01 2.238628e+01 -8.511251e+01 121 98 100
-6.100282e+01 2.159499e+01 -6.336715e+01 250 238 204
-1.779539e+01 3.419379e+00 1.114410e+00 108 142 173
-1.711389e+01 4.311057e+00 -6.379542e+00 191 216 213
-7.944202e+00 -4.639164e+00 5.026972e+00 255 255 253
-6.729433e+00 -2.449116e+00 6.430454e+00 209 227 237
-8.719090e+00 -3.158054e+00 5.108310e+00 25 24 38
-8.793126e+00 -4.094860e+00 4.959229e+00 176 175 177
-2.417583e+01 -2.367054e+00 -1.896058e+00 237 228 222
-2.536930e+01 -1.170252e+00 -2.513158e+00 182 173 157
-1.187020e+01 3.825389e-01 4.301513e+00 184 195 208
-2.366719e+01 -3.319786e+00 -2.045290e+00 152 145 135
-2.345831e+01 -1.753690e+00 -1.277095e+00 122 110 133
-1.031698e+01 9.678279e-01 2.987027e+00 61 71 74
-8.706613e+00 1.722134e+00 4.929640e-01 57 62 69
-4.473645e-01 -2.247710e+00 2.686973e+00 247 247 241
-2.223672e+01 -2.499181e+00 -9.848850e-01 26 19 21
-2.381715e+01 -2.044647e+00 -1.665990e+00 231 230 229
-7.344821e+00 2.269579e+00 -2.153688e+00 66 65 95
-4.358994e+01 1.790349e+01 -7.749386e+01 141 183 202
-9.398071e+00 -3.905476e+00 4.494666e+00 214 209 197
-7.502339e+00 -3.694056e+00 5.555824e+00 152 157 156
-4.778536e-01 -1.811229e+00 3.063412e+00 254 253 255
-1.394311e+01 3.284430e+00 -6.101330e+00 211 230 233
-2.018083e+02 3.605054e+01 -1.681870e+02 247 238 168
-5.254773e+01 2.106774e+01 -8.437884e+01 137 181 186
-1.414680e+02 3.029646e+01 -1.285669e+02 207 197 166
-2.995899e+01 1.895265e+01 -7.099214e+01 220 245 126
-1.211680e+00 -2.829086e+00 3.877855e+00 23 24 26
-4.141859e-01 -2.084259e+00 1.118119e+00 26 25 23
-7.081777e-01 -4.752830e-01 1.884663e+00 160 165 170
-6.028808e-01 -2.132368e+00 3.115824e+00 249 247 249
-7.774407e+00 -4.803760e+00 4.954652e+00 74 75 70
-8.456276e+00 -3.154729e+00 5.220165e+00 241 235 229
-5.090112e-01 -1.939839e+00 2.761563e+00 254 255 255
-7.520275e+00 -4.993060e+00 2.798088e+00 82 79 63
-5.299160e-01 -2.310170e+00 2.866849e+00 252 252 251
-9.033959e-01 -2.438559e+00 3.793679e+00 254 254 246
-8.635933e+00 -2.966319e+00 5.312461e+00 37 38 40
3.039882e-01 -1.027218e+00 3.049468e-01 190 112 62
-3.324280e+02 4.887433e+01 -2.187277e+02 116 127 157
-3.280952e+02 4.977108e+01 -2.170937e+02 255 255 251
-8.028784e-01 -2.232264e+00 3.743609e+00 253 254 255
-9.220748e-01 -2.255305e+00 3.809472e+00 254 255 249
-3.289701e+02 4.886624e+01 -2.180155e+02 252 255 255
-6.474534e-01 -2.491427e+00 3.107374e+00 253 254 250
-3.326277e-01 -1.732323e+00 2.713413e+00 215 214 213
-2.614379e+01 1.174710e+01 -6.178426e+01 255 242 166
-8.875579e+00 1.711056e+00 4.096307e-01 50 58 67
-7.956082e+00 2.907728e+00 -4.369902e+00 255 254 238
-8.177094e+00 3.086734e+00 -4.739595e+00 145 140 137
-8.825251e+00 -4.755198e+00 4.610557e+00 169 169 171
-1.794187e+00 -2.961103e+00 5.104430e+00 113 122 114
-8.654197e-01 -2.456507e+00 3.678134e+00 131 127 150
-5.779524e-01 -2.302208e+00 3.072708e+00 135 141 163
-9.016191e-01 -2.329226e+00 3.868777e+00 255 255 245
-7.807988e+00 -3.137571e+00 5.543952e+00 57 56 55
-4.096316e+00 -1.424319e+00 6.614054e+00 210 219 229
-7.223141e-01 -2.576620e+00 3.299959e+00 232 241 245
-3.843438e-01 -2.478119e+00 2.619851e+00 252 254 251
-4.021433e-01 -2.013521e+00 2.751614e+00 139 140 164
-1.043449e+00 -1.906523e+00 4.153009e+00 94 105 116
-1.249963e+00 -9.513898e-01 3.213494e+00 201 205 194
-1.122926e+01 4.076247e+00 -3.120878e+01 172 168 135
-1.623427e+01 1.376003e+00 -2.178902e+00 125 149 156
-7.778241e+00 2.753369e+00 -4.106833e+00 74 76 68
-2.593258e+00 -1.970674e+00 5.229805e+00 138 153 160
-4.890498e+01 3.144176e+01 -1.044149e+02 228 207 178
-5.111667e+01 2.817241e+01 -1.001210e+02 116 101 72
-4.957628e+01 2.804982e+01 -1.037965e+02 242 235 214
-4.959634e+01 2.858325e+01 -1.035631e+02 254 251 237
-5.050497e+01 2.916716e+01 -1.026304e+02 69 61 50
-4.973791e+01 2.947101e+01 -1.033166e+02 245 240 221
-4.855897e+01 3.199398e+01 -1.051539e+02 97 86 66
-4.855897e+01 3.199398e+01 -1.051539e+02 97 86 66
-4.828251e+01 2.985311e+01 -1.052918e+02 208 188 161
-4.992915e+01 3.046863e+01 -1.026260e+02 109 102 96
-5.125187e+01 3.006177e+01 -1.009290e+02 142 124 88
-5.125187e+01 3.006177e+01 -1.009290e+02 142 124 88
-5.174806e+01 2.799440e+01 -1.001107e+02 184 165 114
-5.031929e+01 2.860157e+01 -1.025386e+02 111 108 93
-5.013633e+01 2.873629e+01 -1.029408e+02 224 222 209
-4.918117e+01 2.925819e+01 -1.046627e+02 164 150 115
-2.150771e+00 -1.694156e+00 4.801630e+00 35 36 42
-5.052314e+01 2.869001e+01 -1.023271e+02 177 166 130
-5.137092e+01 2.892647e+01 -1.006139e+02 195 173 131
-5.137092e+01 2.892647e+01 -1.006139e+02 195 173 131
-5.111229e+01 2.919769e+01 -1.010784e+02 131 111 70
-5.134666e+01 2.932727e+01 -1.006868e+02 125 101 70
-5.080128e+01 2.966821e+01 -1.016754e+02 228 195 151
-5.057920e+01 3.006162e+01 -1.020012e+02 213 184 142
-4.942266e+01 3.061693e+01 -1.040870e+02 76 79 74
-5.086073e+01 3.030742e+01 -1.015751e+02 223 188 150
-5.060680e+01 3.065024e+01 -1.018730e+02 222 194 151
-4.942801e+01 3.118538e+01 -1.038727e+02 82 81 78
-4.787335e+01 3.232318e+01 -1.061093e+02 216 187 150
-4.926022e+01 3.176907e+01 -1.039054e+02 217 196 161
-5.110965e+01 3.105417e+01 -1.009676e+02 247 208 169
-5.110965e+01 3.105417e+01 -1.009676e+02 247 208 169
-4.681288e+01 3.317642e+01 -1.078728e+02 198 168 135
-4.877053e+01 3.238110e+01 -1.045602e+02 205 185 144
-9.417516e+00 -3.983138e+00 4.562001e+00 119 111 102
-4.672994e+01 3.070109e+01 -1.085186e+02 222 198 160
-4.672994e+01 3.070109e+01 -1.085186e+02 222 198 160
-4.777225e+01 3.051475e+01 -1.065489e+02 222 192 157
-5.102492e+01 2.945035e+01 -1.012239e+02 190 161 124
-5.123687e+01 2.956548e+01 -1.008796e+02 194 170 127
-4.675819e+01 3.165161e+01 -1.082467e+02 217 174 130
-5.022590e+01 3.033899e+01 -1.027243e+02 212 212 199
-5.129332e+01 3.050754e+01 -1.006374e+02 219 199 156
-8.901449e+00 -2.863378e+00 5.136516e+00 125 126 119
-4.784218e+01 3.114723e+01 -1.064679e+02 237 198 160
-1.043803e+01 -2.729381e+00 4.642966e+00 71 74 70
-5.041067e+01 2.876332e+01 -1.025247e+02 73 70 54
-4.786809e+01 3.026439e+01 -1.061767e+02 191 170 140
-5.057204e+01 3.088805e+01 -1.020885e+02 91 85 66
-8.880481e-01 -1.998423e+00 4.050153e+00 101 101 98
-4.938900e+01 2.810690e+01 -1.040647e+02 117 106 89
-5.191485e+01 2.796794e+01 -9.991672e+01 104 87 37
-4.740243e+01 3.123703e+01 -1.072060e+02 104 88 69
-4.940359e+01 3.091404e+01 -1.039078e+02 85 92 87
-4.957425e+01 3.097573e+01 -1.034745e+02 143 139 126
-5.778593e+01 1.995175e+01 -8.093636e+01 249 246 227
-2.217697e+00 -3.161388e+00 4.789033e+00 19 21 20
-2.868653e-02 -2.170539e+00 1.974628e+00 26 28 27
-7.802775e-01 -4.629440e-01 1.698999e+00 186 192 200
-7.779356e-01 -4.638709e-01 1.702341e+00 186 192 200
-5.682853e+01 1.644553e+01 -7.606212e+01 177 161 103
-2.778935e-01 -1.780137e+00 2.485480e+00 255 255 254
-3.184648e-01 -1.781485e+00 2.432385e+00 255 255 254
-4.922601e+00 -2.111278e+00 6.646666e+00 209 163 151
-7.728137e+01 2.222916e+01 -9.203559e+01 251 249 236
-2.551030e+00 -1.590011e+00 4.800380e+00 235 235 233
-3.954781e+01 1.942776e+01 -7.777119e+01 179 166 115
-7.312367e+01 2.171576e+01 -9.011158e+01 242 240 224
-6.975883e+01 2.282014e+01 -8.802545e+01 168 164 106
-7.603256e+01 2.421302e+01 -9.105097e+01 255 196 162
-7.603256e+01 2.421302e+01 -9.105097e+01 255 196 162
-9.171678e-01 -2.927775e+00 3.506896e+00 51 57 58
9.331648e-02 -1.890883e+00 1.919680e-01 153 158 158
-3.490552e-01 -1.576470e+00 2.730973e+00 110 114 117
-3.485866e-01 -1.574984e+00 2.731761e+00 110 114 117
-3.951442e+01 2.021164e+01 -7.980742e+01 201 170 109
-4.080403e+01 2.135589e+01 -8.189631e+01 254 223 167
-8.196488e+01 2.500736e+01 -9.444660e+01 255 201 169
-6.142132e-01 -2.433169e+00 3.066429e+00 253 253 252
-1.106191e+00 -2.561544e+00 4.005233e+00 129 135 125
1.515834e-01 -1.049549e-01 -1.424350e+01 237 236 231
7.768828e-01 1.672088e-01 -1.515790e+01 209 204 191
-4.984117e+01 1.505530e+01 -7.363060e+01 255 251 202
-4.758038e+01 1.622442e+01 -7.520462e+01 252 255 235
-3.296601e+01 1.971386e+01 -7.417342e+01 144 151 95
-7.362513e-01 -2.729087e+00 3.381004e+00 253 253 251
-2.887386e-01 -2.459215e+00 2.401859e+00 251 251 253
-9.594524e-01 -2.548786e+00 4.041232e+00 130 132 120
-9.112158e-01 -2.264403e+00 3.855052e+00 255 254 252
-1.019520e-02 -1.186407e+00 -1.386493e+00 112 115 113
-1.297517e+00 -9.747327e-01 3.279231e+00 29 34 50
-1.978822e+00 -1.114973e+00 4.230648e+00 55 55 65
-7.039931e+00 1.914998e+00 -8.308163e-01 181 209 229
-5.068677e+01 1.172722e+01 -6.314962e+01 176 167 138
-4.805318e+01 1.587814e+01 -7.431314e+01 255 232 180
-4.906942e+01 1.604510e+01 -7.475169e+01 145 137 79
-4.933448e+01 1.620013e+01 -7.426884e+01 255 235 168
-8.016205e+01 1.935726e+01 -9.448909e+01 148 148 146
-4.221497e+01 1.970357e+01 -7.801855e+01 134 115 68
-4.221497e+01 1.970357e+01 -7.801855e+01 134 115 68
-7.534414e+01 2.665010e+01 -8.851525e+01 255 197 158
-6.057697e+01 2.219905e+01 -6.364598e+01 239 224 182
-6.125454e+01 2.217737e+01 -6.361516e+01 196 179 126
1.522038e+00 -5.482525e+00 5.847912e+00 235 220 187
-8.790663e-01 -2.753574e+00 3.660952e+00 131 129 130
-8.502067e-01 -2.026810e+00 4.002325e+00 255 254 250
-8.615686e-01 -2.028280e+00 3.982219e+00 255 254 250
1.879793e-01 -3.345574e-01 -1.350099e+01 161 157 148
-2.006442e-01 -1.619183e+00 2.451044e+00 255 255 255
-5.009616e+01 1.486434e+01 -7.283939e+01 248 236 163
-4.897661e+01 1.521992e+01 -7.348560e+01 254 239 186
-4.135902e+01 1.664494e+01 -7.531581e+01 255 247 194
-5.315246e+01 1.606591e+01 -7.421549e+01 145 143 100
-7.339789e+01 1.864120e+01 -9.091964e+01 185 177 165
-7.620857e+01 1.900940e+01 -9.224270e+01 117 115 114
-8.287085e+01 2.023149e+01 -9.617778e+01 150 153 149
-8.012705e+01 2.326080e+01 -9.359180e+01 114 106 95
-8.012705e+01 2.326080e+01 -9.359180e+01 114 106 95
-5.702625e+01 2.247826e+01 -8.611657e+01 255 255 234
-7.250020e+01 2.877877e+01 -8.865621e+01 255 190 151
-2.929378e+00 -3.085513e+00 3.887025e+00 121 128 126
-1.970651e+00 -2.845507e+00 3.936192e+00 124 131 125
-2.376260e-01 -2.270865e+00 2.252177e+00 254 254 253
-6.777417e-01 -2.239530e+00 3.308215e+00 253 252 248
-3.028822e-01 -1.666824e+00 2.632198e+00 254 255 251
-1.254253e+00 -8.866175e-01 3.232027e+00 208 211 184
-4.835199e-01 -2.414105e-01 1.339632e+00 255 253 255
-1.161088e+01 3.813953e+00 -3.067808e+01 242 238 228
-1.150677e+01 3.792282e+00 -3.049806e+01 242 238 228
-8.743611e+00 1.732993e+00 4.298542e-01 47 57 63
-5.274188e+01 1.525301e+01 -7.428227e+01 237 221 159
-4.502707e+01 1.622791e+01 -7.550774e+01 255 250 205
-4.502707e+01 1.622791e+01 -7.550774e+01 255 250 205
-7.568391e+01 1.839877e+01 -9.204177e+01 239 235 201
-5.271990e+01 1.634110e+01 -7.401757e+01 114 117 66
-4.554222e+01 1.719768e+01 -7.644883e+01 235 224 162
-8.106634e+01 1.963594e+01 -9.481380e+01 253 253 237
-2.964254e+01 1.696435e+01 -6.836164e+01 222 240 132
-4.395988e+01 1.796348e+01 -7.601269e+01 239 238 175
-4.395988e+01 1.796348e+01 -7.601269e+01 239 238 175
-3.934294e+01 1.866929e+01 -7.722680e+01 255 237 180
-5.310993e+01 2.041369e+01 -8.176173e+01 255 253 183
-7.427587e+01 2.265272e+01 -9.020080e+01 105 99 80
-7.427587e+01 2.265272e+01 -9.020080e+01 105 99 80
-6.554376e+01 2.244071e+01 -8.585977e+01 214 197 153
-7.296368e+01 2.295951e+01 -8.885960e+01 83 74 47
-7.353147e+01 2.311665e+01 -8.958096e+01 83 74 47
-1.077253e+02 2.783460e+01 -1.089406e+02 223 188 158
-7.836291e+01 2.872243e+01 -9.176260e+01 255 204 162
-8.209973e+01 2.965500e+01 -9.348618e+01 210 136 112
-8.103026e+01 3.051992e+01 -9.266997e+01 254 203 167
-5.062721e-01 -2.508049e+00 2.905182e+00 133 133 161
-5.254914e-01 -2.511382e+00 2.884386e+00 133 133 161
-4.564488e-01 -2.387188e+00 2.681224e+00 254 255 250
-2.564605e+00 -2.919854e+00 5.850452e+00 255 189 54
-6.727808e-01 -2.233198e+00 3.312564e+00 254 253 247
-6.728800e-01 -2.233993e+00 3.312166e+00 254 253 247
-7.608958e-01 -2.236493e+00 3.493804e+00 141 137 169
-4.912054e-01 -2.125009e+00 2.872027e+00 255 255 255
-8.268425e-01 -2.136911e+00 3.696805e+00 251 215 217
-2.603124e-01 -1.940415e+00 2.415839e+00 145 148 162
-2.603124e-01 -1.940415e+00 2.415839e+00 145 148 162
-2.350404e-01 -5.201220e-01 -1.274556e+01 112 106 105
-4.527075e-01 -1.784420e+00 2.968003e+00 121 119 141
-3.491390e-01 -1.660567e+00 2.711425e+00 135 133 139
-3.488952e-01 -1.661149e+00 2.711560e+00 135 133 139
-1.321129e+00 -9.352956e-01 3.334661e+00 31 31 47
-1.401159e+01 2.587727e+00 -2.616715e+01 229 231 216
-1.232539e+01 3.798406e+00 -3.049422e+01 157 146 152
-1.978093e+01 8.203083e+00 -4.752553e+01 175 176 144
-8.845254e+00 1.677295e+00 6.604455e-01 67 80 96
-3.228531e+01 1.233154e+01 -6.580264e+01 187 179 131
-5.191368e+01 1.063095e+01 -6.145157e+01 212 200 172
-4.783738e+01 1.238078e+01 -6.776582e+01 245 233 199
-3.190044e+01 1.329186e+01 -6.627640e+01 212 209 149
-5.243472e+01 1.548337e+01 -7.401953e+01 156 115 81
-5.109761e+01 1.570788e+01 -7.413365e+01 239 229 167
-7.651401e+01 1.841140e+01 -9.256959e+01 138 139 101
-7.651401e+01 1.841140e+01 -9.256959e+01 138 139 101
-5.388088e+01 1.574211e+01 -7.384180e+01 125 114 74
-5.388088e+01 1.574211e+01 -7.384180e+01 125 114 74
-5.018431e+01 1.607074e+01 -7.423783e+01 221 222 150
-5.018431e+01 1.607074e+01 -7.423783e+01 221 222 150
-3.221175e+01 1.610257e+01 -6.920873e+01 214 206 118
-2.935239e+01 1.602603e+01 -6.772971e+01 98 100 49
-7.860702e+01 1.914463e+01 -9.369600e+01 218 214 202
-7.860702e+01 1.914463e+01 -9.369600e+01 218 214 202
-4.222043e+01 1.753421e+01 -7.649983e+01 231 224 141
-3.979735e+01 1.824555e+01 -7.712234e+01 253 238 191
-4.340743e+01 1.801773e+01 -7.622000e+01 77 77 38
-4.640047e+01 1.814776e+01 -7.660661e+01 251 254 203
-6.941812e+01 1.982787e+01 -8.809636e+01 211 203 185
-4.548944e+01 1.901654e+01 -7.742093e+01 221 227 155
-3.995382e+01 1.990191e+01 -7.770285e+01 207 221 145
-3.995382e+01 1.990191e+01 -7.770285e+01 207 221 145
-5.318123e+01 2.112108e+01 -8.239477e+01 146 157 80
-6.206165e+01 2.275196e+01 -8.659914e+01 90 85 81
-5.199949e+01 2.339079e+01 -8.547009e+01 166 169 91
-5.100044e+01 2.453905e+01 -8.865309e+01 217 199 142
-6.038171e+01 2.602484e+01 -8.593534e+01 255 249 227
-6.033690e+01 2.715672e+01 -8.552361e+01 255 251 224
-8.039353e+01 3.017050e+01 -9.234918e+01 145 92 77
-8.039353e+01 3.017050e+01 -9.234918e+01 145 92 77
-5.567129e+00 -4.066094e+00 -1.545970e-01 129 139 132
-5.748906e-01 -2.658557e+00 2.982405e+00 252 252 247
-4.205778e-01 -2.609200e+00 2.677159e+00 62 61 62
-7.779901e-01 -2.678558e+00 3.561896e+00 137 140 157
-4.961681e-01 -2.550416e+00 2.841531e+00 253 254 254
-4.220164e-01 -2.497599e+00 2.669068e+00 128 125 142
-4.220842e-01 -2.495960e+00 2.668859e+00 128 125 142
-7.821462e-01 -2.600657e+00 3.397499e+00 250 253 249
-7.821462e-01 -2.600657e+00 3.397499e+00 250 253 249
-7.247066e-01 -2.576521e+00 3.290960e+00 239 246 243
-7.258490e-01 -2.576630e+00 3.291213e+00 239 246 243
-9.054595e-01 -2.629611e+00 3.728624e+00 125 132 147
-4.369887e-01 -2.489087e+00 2.726983e+00 252 252 252
-5.023088e-01 -2.498148e+00 2.836612e+00 127 128 144
-2.712117e-01 -2.416532e+00 2.377500e+00 254 254 254
-2.712117e-01 -2.416532e+00 2.377500e+00 254 254 254
-7.179014e-01 -2.513935e+00 3.291594e+00 124 130 153
-7.196594e-01 -2.513950e+00 3.290864e+00 124 130 153
-6.944783e-01 -2.493653e+00 3.225478e+00 247 255 250
-3.513114e-01 -2.354806e+00 2.465072e+00 251 253 247
-3.510691e-01 -2.355242e+00 2.465278e+00 251 253 247
-4.041320e-01 -2.328584e+00 2.584970e+00 255 253 250
-8.944569e-01 -2.351536e+00 3.806408e+00 139 139 151
-8.988948e-01 -2.350682e+00 3.803643e+00 139 139 151
-8.572210e-01 -2.343749e+00 3.748566e+00 255 255 252
-8.646208e-01 -2.352694e+00 3.740687e+00 255 255 252
-8.002692e-01 -2.250575e+00 3.598379e+00 133 132 162
-4.680920e-01 -2.079979e+00 2.826541e+00 142 141 152
-4.722072e-01 -2.080120e+00 2.825279e+00 142 141 152
-4.201904e-01 -2.014229e+00 2.733528e+00 144 143 169
-4.188858e-01 -2.014374e+00 2.735826e+00 144 143 169
-3.152403e-01 -1.968213e+00 2.526563e+00 143 142 158
-3.162316e-01 -1.967848e+00 2.524809e+00 143 142 158
-2.795927e+00 -1.423971e+00 -9.746304e+00 108 101 99
-5.708644e-01 -1.967522e+00 3.111119e+00 255 252 253
3.818938e-01 -1.206645e-01 -1.423999e+01 249 247 240
7.306473e-01 5.755408e-02 -1.491983e+01 249 249 244
-5.194425e+01 1.094549e+01 -6.157394e+01 64 55 44
-3.368521e+01 1.477182e+01 -6.968003e+01 204 210 127
-3.668763e+01 1.488830e+01 -7.107757e+01 255 254 218
-3.231834e+01 1.523743e+01 -6.960728e+01 85 90 51
-3.078554e+01 1.515103e+01 -6.864840e+01 225 229 148
-4.794780e+01 1.553632e+01 -7.392364e+01 255 246 190
-2.889810e+01 1.548765e+01 -6.786812e+01 77 75 34
