ply
format ascii 1.0
element vertex 919
property float x
property float y
property float z
property uchar diffuse_red
property uchar diffuse_green
property uchar diffuse_blue
end_header
-1.260571e+00 -1.408380e+00 -2.296780e+00 248 248 246
-3.929814e+00 -3.308737e+00 4.176092e+00 200 212 215
-1.000893e+02 -1.347302e+01 2.484859e+01 63 66 53
-1.071053e+02 -1.378400e+01 2.638464e+01 198 188 141
1.546081e+01 -1.983990e+00 -4.549844e+00 48 41 44
1.546081e+01 -1.983990e+00 -4.549844e+00 48 41 44
-1.712656e+00 -2.110090e+00 1.474087e+00 247 247 246
-1.844590e+00 -1.711366e+00 1.948209e+00 128 131 145
-4.004411e+01 -9.587525e+00 1.551519e+01 121 117 114
-4.004411e+01 -9.587525e+00 1.551519e+01 121 117 114
-4.270441e+01 -1.069881e+01 1.910236e+01 47 54 60
-6.585094e+01 -1.280055e+01 2.429282e+01 72 82 89
-6.573176e+01 -1.138612e+01 1.980370e+01 75 80 83
-9.235943e+01 -1.449691e+01 2.714437e+01 103 111 88
-9.302190e+01 -1.041972e+01 1.714465e+01 217 206 151
1.490555e+01 -3.067772e-01 -6.851377e+00 162 160 171
1.193674e+01 -1.238208e+00 -7.949300e+00 246 247 247
-2.143669e+00 -2.024180e+00 2.639389e+00 250 253 251
-1.530064e+00 -1.464826e+00 1.019678e+00 76 83 98
-1.774571e+01 4.422918e-01 -1.922664e+01 62 78 91
3.533341e+00 2.609382e-01 1.619408e+00 39 46 69
-2.416540e+00 -9.722722e-01 1.778015e+00 47 51 71
-4.110647e+01 -9.800073e+00 1.562195e+01 126 123 121
-8.183203e+01 -1.561554e+01 3.484911e+01 43 48 51
9.569465e+00 -2.459174e+00 -4.168449e+00 249 249 247
-4.555417e-01 1.635218e-01 -1.510318e+01 240 239 235
-9.451255e-01 -4.718737e-02 -1.444967e+01 226 226 221
-1.384035e+00 -2.024517e+00 8.685357e-01 78 84 72
-1.813271e+00 -8.660156e-01 5.928072e-02 184 203 216
-1.714182e+01 8.590053e-01 -2.030794e+01 228 228 218
-4.103716e+01 -1.072682e+01 1.955017e+01 255 255 253
-5.740190e+01 -1.108533e+01 1.875256e+01 121 123 116
-7.809451e+01 -1.628853e+01 3.626067e+01 33 37 36
-8.781280e+01 -1.510019e+01 3.058613e+01 34 42 32
-9.087560e+01 -1.478852e+01 2.890139e+01 35 36 34
-9.490204e+01 -1.053626e+01 1.550656e+01 198 188 138
-9.670731e+01 -1.157699e+01 1.924022e+01 131 138 96
-9.670731e+01 -1.157699e+01 1.924022e+01 131 138 96
-1.105929e+02 -1.430392e+01 2.781050e+01 240 228 184
-1.108999e+02 -1.433583e+01 2.787009e+01 240 228 184
1.570488e+01 -2.092420e+00 -4.157087e+00 229 186 140
9.527668e+00 -2.431114e+00 -4.143491e+00 97 94 59
-1.732477e+00 -2.345353e+00 1.423875e+00 225 237 244
-1.453241e+00 -1.872446e+00 9.813963e-01 141 149 150
-1.831045e+01 3.116072e-01 -1.848493e+01 162 178 162
-2.447710e+00 -8.549605e-01 1.834119e+00 60 57 85
-2.538554e+00 -9.241062e-01 2.057453e+00 226 225 222
-5.085302e+00 -1.437347e+00 5.090913e+00 35 44 67
-5.103407e+00 -1.441345e+00 5.092153e+00 35 44 67
-4.181074e+01 -1.092192e+01 1.992517e+01 252 252 250
-4.181074e+01 -1.092192e+01 1.992517e+01 252 252 250
-7.783924e+01 -1.617893e+01 3.589757e+01 34 34 28
-6.110509e+01 5.325136e+00 -4.299456e+01 181 171 150
-8.733617e+01 -1.470059e+01 2.888613e+01 108 114 87
-9.287088e+01 -1.517686e+01 2.861381e+01 113 124 96
-8.594268e+01 -1.497958e+01 3.205821e+01 36 46 34
-9.709472e+01 -1.197967e+01 1.982282e+01 220 216 197
-9.682605e+01 -1.116288e+01 1.842203e+01 229 214 164
-1.113687e+02 -1.379025e+01 2.707830e+01 66 58 39
-1.779541e+01 5.583456e-01 -1.926732e+01 160 171 118
-3.495086e+00 1.278109e-01 -4.072478e+00 159 167 145
-7.827225e+01 -1.615811e+01 3.569627e+01 31 33 24
-8.273199e+01 -1.548579e+01 3.201843e+01 49 59 37
-8.273199e+01 -1.548579e+01 3.201843e+01 49 59 37
-8.857453e+01 -1.483326e+01 2.951423e+01 41 40 37
-8.668912e+01 -1.191869e+01 1.799042e+01 125 132 98
-8.960089e+01 -1.474465e+01 2.983147e+01 98 106 107
-9.383580e+01 -1.178278e+01 1.637244e+01 71 76 79
-9.636729e+01 -1.394571e+01 2.502042e+01 45 45 45
-9.670122e+01 -1.363445e+01 2.712994e+01 134 131 93
-1.001400e+01 2.978170e+00 -4.312184e+00 59 78 93
-2.181967e+00 -2.486690e-01 -2.907973e+00 165 160 131
-5.137697e+00 -6.930480e-01 -4.964944e+00 111 107 97
-1.169172e+01 4.242223e+00 -4.422232e+00 55 65 84
-1.191014e+01 2.497936e-01 3.060526e+00 75 74 71
-1.117672e+01 3.863531e+00 -4.230855e+00 110 122 121
-1.117672e+01 3.863531e+00 -4.230855e+00 110 122 121
-6.971234e+00 1.024805e-01 -5.862128e+00 83 84 78
-4.914198e+00 -2.067352e+00 -5.330829e+00 75 71 62
-4.836549e+00 -8.128572e-01 -4.813771e+00 119 124 128
-3.546369e+00 2.462649e-01 -4.006063e+00 167 164 136
-1.798957e+00 4.807611e-02 -1.589061e+00 158 151 139
-2.527293e+00 6.120543e-01 -2.728211e+00 105 83 61
-8.613169e+00 2.547412e+00 -4.890983e+00 191 200 204
-4.606547e+00 -1.759168e+00 -4.985628e+00 150 159 167
-4.275717e+00 -9.372963e-01 -4.700416e+00 44 45 36
-8.969064e+00 2.589175e+00 -5.301757e+00 188 204 213
-9.664098e+00 3.056489e+00 -6.611640e+00 68 69 62
-9.664098e+00 3.056489e+00 -6.611640e+00 68 69 62
-5.768275e+00 -1.655233e+00 -5.553706e+00 109 106 91
-1.651899e+00 -2.253314e+00 1.611528e+00 201 194 177
-1.954147e+00 8.311826e-02 -2.355278e+00 198 179 143
-7.882336e+00 1.978042e+00 -3.191080e+00 142 158 173
-3.568116e+00 -1.378185e+00 -1.028593e+01 213 206 190
-3.568116e+00 -1.378185e+00 -1.028593e+01 213 206 190
-6.861003e+00 -2.257572e+00 -8.908113e+00 58 57 51
-5.522763e+00 -1.914799e+00 -5.529174e+00 99 95 83
-1.516184e+00 -2.425484e+00 1.278880e+00 226 223 206
-1.627980e+00 -2.351081e+00 1.282552e+00 104 104 96
-1.355025e+00 -1.785402e+00 -2.395757e-01 98 97 92
-1.780166e+00 -7.640184e-01 1.665254e-01 253 255 254
-1.215548e+01 4.502697e+00 -4.614927e+00 138 160 183
-4.959663e+00 -1.929931e+00 -5.148427e+00 16 18 15
-4.565439e+00 -7.034196e-01 -4.639793e+00 14 15 15
-2.006783e+01 2.573495e+00 -3.765057e+00 159 175 174
-1.537584e+00 -1.916176e+00 7.507903e-01 71 71 66
-1.232451e+00 -1.158115e+00 -8.459361e-01 193 110 17
-5.431272e+00 -2.715184e-01 -4.930859e+00 129 120 110
-8.150839e+00 2.017481e+00 -3.082525e+00 36 38 37
-1.476065e+01 4.846565e+00 -5.978299e+00 43 52 71
-4.902745e+00 -1.481408e+00 -5.170191e+00 40 37 35
-4.902745e+00 -1.481408e+00 -5.170191e+00 40 37 35
-2.152645e+00 -2.545387e+00 2.445661e+00 216 203 173
-5.123596e+00 -1.357446e+00 -5.231709e+00 89 89 79
-4.726834e+00 -1.173252e+00 -4.990537e+00 33 34 33
-4.923831e+00 -8.619922e-01 -5.007889e+00 41 40 36
-4.923831e+00 -8.619922e-01 -5.007889e+00 41 40 36
-5.006050e+00 -7.416861e-01 -4.991754e+00 27 25 26
-5.006050e+00 -7.416861e-01 -4.991754e+00 27 25 26
-4.405489e+00 -1.686424e+00 -4.868612e+00 23 23 23
-1.170499e+00 -1.304949e+00 -8.584611e-01 253 185 41
-3.385222e+02 2.529909e+01 -1.239001e+02 247 248 243
-3.385222e+02 2.529909e+01 -1.239001e+02 247 248 243
-2.168427e+02 -3.869958e+00 -3.160470e+01 255 236 199
-2.270422e+02 -5.681445e+00 -3.040228e+01 189 191 127
-2.638585e+02 -1.057285e+00 -4.882509e+01 58 55 43
-1.061254e+02 2.077365e+01 -1.060511e+02 196 181 162
-1.107024e+02 2.147880e+01 -1.094685e+02 188 178 158
-2.640803e+02 8.834833e+00 -4.696436e+01 201 198 143
-2.120399e+02 -1.721455e+00 -4.198482e+01 63 64 55
-1.349243e+02 2.378165e+01 -1.221574e+02 193 183 150
-2.814258e+02 7.229614e-01 -5.762811e+01 213 199 175
-1.245162e+01 4.858852e-01 2.153768e+00 96 130 163
-9.138125e+00 -9.972236e+00 -2.631975e+01 127 123 129
-2.094610e+02 3.284155e+01 -1.654104e+02 173 165 111
-2.290104e+02 -4.913578e+00 -2.765974e+01 63 55 46
-1.006345e+02 -5.410702e+00 -4.210338e+00 214 197 145
-1.548279e+02 -7.851741e+00 -6.116110e+00 154 164 94
-2.124974e+02 -6.263332e+00 -1.732552e+01 60 61 49
-2.289747e+02 -3.473699e+00 -2.642173e+01 63 52 38
-2.817430e+02 1.675095e+00 -5.775624e+01 208 203 172
-3.712193e+02 2.286115e+01 -1.063439e+02 124 112 79
-2.653770e+02 1.194137e+01 -4.443879e+01 216 210 159
-1.923674e+01 -1.487203e-01 -1.685125e+01 162 173 169
-7.933843e+00 1.649017e+00 -1.612035e+00 136 162 189
-2.116256e+02 -4.625688e+00 -1.632802e+01 189 188 165
-2.293335e+02 -2.118165e+00 -2.695245e+01 35 30 22
-2.115792e+02 -3.123296e+00 -1.604335e+01 208 201 166
-2.157051e+02 -5.376753e-01 -3.043163e+01 253 251 254
-2.646396e+02 2.417055e+00 -4.763769e+01 56 54 20
-3.538555e+02 2.474797e+01 -9.628464e+01 54 46 32
-3.688271e+02 3.130004e+01 -1.045143e+02 248 240 212
-3.523764e+02 3.239367e+01 -9.401451e+01 60 49 34
-3.535287e+02 3.411246e+01 -9.259033e+01 97 89 76
-6.040398e+01 7.822685e+00 -4.686408e+01 142 159 78
-2.288382e+02 -4.828593e+00 -2.910828e+01 195 180 151
-2.290801e+02 -4.135049e+00 -2.762374e+01 42 38 12
-2.116143e+02 -4.776476e+00 -1.593529e+01 46 35 12
-2.291684e+02 -1.542369e+00 -2.633899e+01 237 231 196
-2.292213e+02 -5.583277e-01 -2.655143e+01 34 32 5
-7.788425e+02 1.416354e+00 -1.499725e+02 109 108 106
-3.004136e+02 1.240598e+01 -6.664681e+01 237 223 179
-3.529920e+02 2.537485e+01 -9.643814e+01 225 217 206
-3.687059e+02 3.947807e+01 -1.027634e+02 225 218 191
-3.252575e+00 -1.753145e+00 3.390127e+00 220 225 224
-1.179533e+01 2.133943e+00 -3.326759e+00 50 72 86
-7.903611e+02 6.874592e+01 -4.117573e+02 82 67 76
-2.961974e+00 -1.084682e+00 2.457285e+00 174 174 165
-1.909319e+00 -2.130728e+00 1.966957e+00 212 209 196
-9.356768e+01 -1.463738e+01 2.706484e+01 92 96 67
-1.974432e+00 -2.037518e+00 2.152854e+00 223 172 171
-1.155243e+01 1.843664e-01 2.826455e+00 48 68 100
-2.158349e+02 -3.777376e+00 -3.141818e+01 255 238 216
-4.398327e+02 3.513880e+01 -1.992303e+02 24 32 36
-3.394499e+02 2.527987e+01 -1.228558e+02 253 255 250
-4.149025e-01 1.648058e-01 -1.494133e+01 230 232 223
-1.394565e+02 -5.770500e+00 2.682522e+01 68 67 47
-4.047166e+02 2.172681e+01 -1.285608e+02 33 34 19
-5.858110e+02 1.152768e+01 -6.485908e+00 141 124 141
-5.666533e+02 1.530701e+01 -4.283034e+00 248 253 255
3.493254e+00 -1.235295e+00 1.204530e+00 252 254 254
-1.582860e+02 -7.718364e+00 1.651275e+01 96 93 54
-1.929921e+02 3.490220e+01 -1.615270e+02 217 205 153
-1.935347e+02 3.747603e+00 -4.291604e+00 234 229 198
-2.204152e+01 1.360994e+00 -2.004957e+00 117 140 147
-2.288926e+02 -3.454138e+00 -2.641672e+01 46 37 30
-2.157674e+01 1.553238e+00 -1.752192e+00 60 82 105
-1.663200e+00 -2.025298e+00 1.407802e+00 205 197 189
-1.830608e+00 -1.955323e+00 1.833255e+00 205 190 184
-1.912357e+00 -2.005000e+00 2.007604e+00 201 179 167
-2.420360e+00 -9.529883e-01 1.820820e+00 30 36 36
-1.998798e+00 -2.054787e+00 2.184377e+00 154 89 81
-1.814368e+00 -1.901472e+00 1.800061e+00 196 169 158
-1.736430e+00 -1.717420e+00 1.738710e+00 223 221 219
-1.861097e+00 -1.803710e+00 2.058232e+00 210 203 194
-1.289435e+01 3.261793e+00 -2.063817e+00 94 118 120
-1.798269e+00 -2.058590e+00 1.682783e+00 208 206 196
-1.962509e+00 -2.070581e+00 2.107982e+00 128 77 67
-1.806990e+00 -1.973100e+00 1.758814e+00 131 80 77
-1.870806e+00 -1.802400e+00 2.059711e+00 216 212 205
-2.436017e+00 -8.737875e-01 1.879256e+00 167 166 159
-9.236766e+00 1.656341e+00 -1.328230e+00 65 78 87
-3.449332e+02 2.014545e+01 -1.281970e+02 255 255 255
-7.380189e+01 -1.590827e+01 3.414427e+01 190 187 170
-1.230714e+02 -1.637974e+01 3.580202e+01 47 48 42
-1.230714e+02 -1.637974e+01 3.580202e+01 47 48 42
-3.585109e+02 1.619041e+01 -1.323528e+02 71 69 68
-1.298737e+02 -1.126869e+01 1.734336e+01 156 174 116
-1.959157e+02 -1.344893e+01 7.308616e+01 47 62 54
-1.042897e+02 -1.864223e+01 4.438780e+01 76 75 60
-1.212765e+02 -1.631439e+01 3.713938e+01 52 53 36
-1.215915e+02 -1.539226e+01 3.752529e+01 35 39 23
-3.383391e+02 1.648268e+01 -1.153341e+02 254 255 247
-1.580527e+02 -5.470086e+00 1.666103e+01 235 229 199
-2.290507e+02 6.601306e+00 -2.401455e+01 211 207 163
-1.398832e+02 -3.110909e+00 2.743145e+01 58 60 53
-1.395328e+02 -2.014923e+00 2.725953e+01 54 56 51
-1.305144e+02 -1.424204e+01 2.366729e+01 210 207 152
-1.213226e+02 -1.500770e+01 3.756571e+01 39 42 31
-3.220312e+02 1.795718e+01 -1.175187e+02 209 211 212
-2.292634e+02 8.718922e+00 -2.545531e+01 136 134 110
-1.565350e+00 -2.336281e+00 1.096409e+00 144 144 152
-8.395596e+01 -1.520487e+01 3.320063e+01 41 54 37
-1.209043e+02 -1.577610e+01 3.660133e+01 56 54 44
-1.213208e+02 -1.505598e+01 3.706035e+01 134 127 99
-1.032513e+02 -1.548391e+01 4.736658e+01 79 77 50
-3.489127e+02 1.338424e+01 -1.226437e+02 90 96 97
-1.214349e+02 -1.179270e+01 3.789676e+01 213 211 171
-1.948520e+02 -2.274311e+00 -4.739379e+00 104 98 75
-1.211899e+02 -8.378071e+00 3.807369e+01 87 94 68
-1.209130e+02 -4.724434e+00 3.962217e+01 218 218 189
-3.348082e+02 2.540121e+01 -8.564407e+01 213 208 167
-2.118941e+02 8.085130e+00 -1.372995e+01 216 213 175
-1.208473e+02 -4.117688e+00 3.974899e+01 226 222 194
-1.227102e+02 -1.998873e+00 3.993858e+01 66 73 47
-1.206034e+02 -1.741364e+01 3.731069e+01 144 147 100
-1.294359e+02 -1.213537e+01 1.616306e+01 255 254 254
-1.210674e+02 -1.600802e+01 3.630516e+01 98 93 74
-1.210674e+02 -1.600802e+01 3.630516e+01 98 93 74
-1.285521e+02 -1.054498e+01 1.594993e+01 254 255 252
-1.032634e+02 -1.440290e+01 4.727360e+01 169 176 131
-1.220074e+02 -1.163462e+01 3.834149e+01 98 98 61
-1.227388e+02 -1.184622e+01 3.901980e+01 104 105 97
-3.166925e+02 9.587497e+00 -7.704917e+01 109 102 80
-1.397397e+02 -6.623188e+00 2.682483e+01 83 84 54
-2.285259e+02 6.966782e+00 -2.565696e+01 239 235 190
-1.212109e+02 -4.933499e+00 3.997556e+01 121 119 96
-1.209786e+02 -4.241077e+00 3.942788e+01 103 101 80
-1.213688e+02 -1.645455e+00 4.032489e+01 104 101 80
-2.655075e+02 2.096435e+01 -4.248783e+01 117 115 119
-1.516432e+00 -1.386809e+00 1.133897e+00 249 246 248
-8.998318e+01 -1.473912e+01 2.941446e+01 91 98 99
-1.320951e+02 2.692226e+00 -4.409688e+01 149 150 157
-1.201500e+02 -1.264664e+01 3.691477e+01 47 53 27
-3.343188e+02 1.948874e+01 -1.225807e+02 221 221 221
-1.396424e+02 -6.741784e+00 2.644094e+01 174 171 143
-2.833623e+02 1.167511e+01 -5.526464e+01 172 167 141
-1.204304e+02 -6.186757e+00 3.910138e+01 76 73 59
-1.220386e+02 -2.177637e+00 3.962493e+01 47 51 25
-1.685602e+01 -1.250729e-01 -1.028059e+01 23 24 21
-2.658113e+02 -1.051773e+00 -4.923119e+01 45 46 36
-1.504094e+00 -1.650917e+00 1.255542e+00 199 195 184
-4.335619e+00 -1.774008e+00 -8.894789e+00 180 173 155
-4.796235e+00 -1.946507e+00 -8.584378e+00 178 171 157
-3.253581e+00 -1.731517e+00 3.378695e+00 255 255 255
-1.873887e+01 -9.235296e-01 -1.109129e+01 131 130 120
-9.052695e+00 2.569276e+00 -5.151012e+00 86 91 100
-1.764442e+02 1.692613e-01 7.085111e+00 73 63 51
-2.269022e+00 2.395624e-02 -2.970181e+00 183 183 167
-1.862019e+01 -5.487044e-01 -1.102111e+01 43 41 36
-1.841820e+01 -2.005671e-01 -1.080010e+01 30 30 25
-1.858658e+01 2.144204e-01 -1.072821e+01 47 47 43
-1.916729e+01 8.155027e-01 -1.081247e+01 21 21 17
-2.293986e+02 3.790498e+00 -2.568345e+01 189 172 137
-2.288816e+02 1.758869e+00 -2.578008e+01 64 60 27
-2.292857e+02 4.626015e+00 -2.575278e+01 63 55 35
-7.142367e+00 -7.273398e-02 -6.290863e+00 78 86 86
1.224171e+01 -1.210272e+00 -8.564848e+00 255 255 255
-7.459623e+00 -1.412948e-01 -6.235349e+00 74 84 83
-1.756399e+01 1.460848e+00 -4.677167e-01 134 163 169
-2.266214e+00 -2.727372e+00 2.728789e+00 21 25 24
-2.531671e+00 -1.034545e+00 2.242764e+00 200 208 195
-2.522505e+00 -1.032386e+00 2.239373e+00 200 208 195
-2.065333e+00 -8.162252e-02 -7.731763e-01 244 244 244
-9.074004e+01 -1.447000e+01 2.880328e+01 63 68 69
-4.233252e+00 -2.886926e+00 4.663888e+00 188 119 55
-2.272019e+00 5.943517e-01 -2.265267e+00 98 105 120
-7.438333e+01 -1.707876e+01 4.294785e+01 134 142 91
1.461625e+01 2.027601e-01 -1.154169e+01 148 148 149
-2.928607e-01 2.023900e-01 -1.535456e+01 228 229 224
-2.041348e+00 3.892028e-01 -2.143983e+00 203 186 171
-3.023308e+00 -1.350523e+00 -4.088676e+00 81 85 84
-3.643044e+01 -1.305519e+01 2.838545e+01 87 87 90
-3.605286e+01 -1.294920e+01 2.820444e+01 87 87 90
-3.914437e+01 -1.104126e+01 2.073964e+01 114 117 110
-7.115789e+01 -1.737712e+01 4.050686e+01 123 126 107
-3.275350e+02 2.725690e+01 -1.410312e+02 253 252 250
-2.309059e+02 1.834076e+01 -2.232249e+01 171 160 151
1.303007e+01 -6.281578e-01 -9.976555e+00 121 110 75
-1.320606e+00 -2.798063e-01 -1.371055e+01 220 221 221
-4.604222e+00 -1.185052e+00 -4.825790e+00 156 173 188
-1.108132e+00 -1.157427e+00 -6.870399e-01 124 93 88
-3.762112e+00 1.170244e-02 -4.173543e+00 22 25 29
-6.989688e+01 -1.724922e+01 4.046603e+01 140 142 128
-9.544606e+01 -1.463064e+01 2.644784e+01 102 108 95
-9.519579e+00 3.039664e+00 -5.408560e+00 117 126 139
-3.111487e+00 -8.855668e-01 -4.195866e+00 17 21 30
-1.979536e+00 -1.899036e+00 2.217757e+00 248 247 246
-5.924870e+00 -5.837627e-01 -5.258084e+00 101 103 100
-2.075468e+00 -3.328328e-01 -6.829824e-01 254 254 254
-6.466625e+01 -1.786628e+01 4.322968e+01 119 123 102
-6.625637e+01 -1.743377e+01 4.168301e+01 124 125 107
-7.065277e+01 -1.688218e+01 4.231619e+01 187 188 122
-8.033945e+01 -1.614069e+01 3.513142e+01 24 26 22
-9.309762e+01 -1.377313e+01 2.441604e+01 130 135 114
-1.129153e+02 -1.385801e+01 2.740067e+01 68 61 51
1.304706e+01 -5.978226e-01 -1.006409e+01 207 203 174
1.286931e+01 -6.544236e-01 -9.838578e+00 138 138 136
-2.964216e+00 -9.021581e-01 -1.177315e+01 107 107 106
-1.878558e+00 -1.817688e+00 2.024182e+00 255 253 254
-4.303131e+00 -7.509480e-01 -4.593160e+00 124 124 121
-1.785373e+01 5.100238e-01 -1.913689e+01 162 169 137
-1.943327e+00 5.842419e-01 -2.142680e+00 144 128 138
-4.069758e+01 -1.061702e+01 1.866930e+01 246 248 236
-4.069758e+01 -1.061702e+01 1.866930e+01 246 248 236
-4.807123e+01 -1.381754e+01 3.064323e+01 125 129 115
-5.888243e+01 -1.483452e+01 3.320676e+01 64 76 80
-6.590040e+01 -1.280364e+01 2.429562e+01 71 81 90
-7.122793e+01 -1.683635e+01 4.210573e+01 141 149 92
-7.437598e+01 -1.638540e+01 4.008458e+01 99 112 75
-9.473253e+01 -1.391515e+01 2.536226e+01 44 45 41
-1.008805e+02 -1.836895e+01 4.317265e+01 198 192 144
-1.110761e+02 -1.232662e+00 -2.825177e+01 202 204 194
-2.128400e+02 6.256140e+00 -1.550768e+01 164 163 142
-2.124327e+02 6.731818e+00 -1.487306e+01 39 41 38
-1.028402e+02 -1.917827e+00 4.859367e+01 45 46 44
1.285308e+01 -7.523836e-01 -9.696794e+00 165 161 161
1.285546e+01 -6.931727e-01 -9.717035e+00 138 138 134
1.162227e+01 -1.642656e+00 -6.728506e+00 113 104 120
1.153242e+01 -1.473224e+00 -7.333475e+00 254 254 244
1.186351e+00 6.545645e-01 -1.678706e+01 120 109 108
1.082437e+00 6.285979e-01 -1.672129e+01 104 97 105
-3.437783e+00 -3.056465e+00 3.778043e+00 99 109 115
-1.700447e+01 8.757090e-01 -2.026679e+01 224 221 215
-5.417843e+00 -2.676374e-01 -4.926534e+00 144 143 139
-2.462414e+00 -8.483426e-01 1.918249e+00 254 252 254
-4.442792e+01 -1.230900e+01 2.443180e+01 249 251 244
-4.580090e+01 -1.295163e+01 2.687107e+01 245 246 233
-6.565913e+01 -1.793913e+01 4.387561e+01 37 34 26
-6.741195e+01 -1.274165e+01 2.360593e+01 74 82 89
-6.741195e+01 -1.274165e+01 2.360593e+01 74 82 89
-7.176243e+01 -1.671751e+01 3.893658e+01 51 45 45
-6.564543e+01 -1.163642e+01 1.993633e+01 125 125 120
-7.454276e+01 -1.644096e+01 3.740157e+01 28 29 24
-7.334985e+01 -1.641497e+01 4.076276e+01 109 116 82
-7.780762e+01 -1.611608e+01 3.859766e+01 76 86 49
-8.398151e+01 -1.479212e+01 2.987970e+01 109 122 107
-8.953634e+01 -1.486541e+01 2.864313e+01 110 119 98
-1.699116e+01 7.542452e-01 4.621861e-01 182 218 231
-1.000320e+02 -1.303773e+01 2.452754e+01 88 76 73
-1.536946e+01 4.912148e+00 -4.712350e+00 212 215 217
-6.523765e+02 -2.047007e+01 -2.092193e+01 149 127 131
1.338602e+01 -4.627511e-01 -1.050690e+01 246 238 181
-2.204623e-01 9.284268e-02 -1.494118e+01 232 230 227
-2.305703e+00 -8.539325e-01 -1.191111e+01 234 236 235
-6.205713e+00 -2.284057e+00 -7.247339e+00 64 79 69
-1.330000e+01 -8.304325e+00 1.357622e+01 114 117 121
-1.336603e+01 -8.294544e+00 1.379496e+01 217 201 173
-1.742813e+00 -2.042707e+00 1.635828e+00 125 130 149
-1.088616e+00 -1.123073e+00 -6.817342e-01 74 64 64
-3.320827e+01 1.394859e+00 -2.482429e+01 209 213 203
-3.307812e+01 1.408403e+00 -2.478166e+01 209 213 203
-5.001634e+01 -1.480397e+01 3.365599e+01 204 208 195
-5.001634e+01 -1.480397e+01 3.365599e+01 204 208 195
-6.591422e+01 -1.739646e+01 4.224707e+01 43 42 37
-6.616580e+01 -1.146096e+01 1.933155e+01 143 146 128
-6.616580e+01 -1.146096e+01 1.933155e+01 143 146 128
-7.521432e+01 -1.683461e+01 3.831857e+01 34 34 29
-6.671610e+01 -1.108425e+01 1.807811e+01 122 127 125
-8.896386e+01 -1.530584e+01 3.021754e+01 120 128 108
-4.762917e+02 3.597141e+01 -1.667860e+02 182 177 151
-2.120094e+02 5.459974e+00 -1.440381e+01 199 193 162
-2.569124e+02 4.021365e+01 -1.955119e+02 245 226 170
-3.087498e+02 2.339601e+01 -1.303354e+02 241 241 239
-3.373026e+02 1.859798e+01 -1.211232e+02 255 255 254
-3.160121e+02 4.543399e+01 -2.092245e+02 254 254 253
-4.149064e+02 1.864559e+01 -1.565822e+02 139 132 122
-1.388110e+01 2.358263e+00 1.178179e+00 143 173 185
-3.369531e+02 1.590843e+01 -1.194399e+02 50 50 55
-3.384482e+02 2.721872e+01 -1.288604e+02 255 255 253
-4.020687e+02 2.160567e+01 -1.276650e+02 36 40 23
-1.939264e+00 -2.452143e+00 1.942568e+00 232 243 237
-1.635004e+00 -1.977129e+00 1.398374e+00 125 127 159
-4.351007e+02 2.905214e+01 -1.451438e+02 216 213 175
-1.558470e+00 -2.325726e+00 1.149059e+00 127 128 146
-2.110066e+00 -2.468903e+00 2.360336e+00 251 249 245
-3.334370e+02 6.309110e+00 -8.795320e+01 86 73 51
-4.018900e+02 2.160492e+01 -1.267488e+02 186 176 131
-2.140836e+02 -6.731898e+00 -1.610879e+01 177 164 134
-1.260557e+02 2.630074e+01 -1.180692e+02 237 235 215
-2.121626e+02 5.076145e-01 -1.484156e+01 215 206 150
-3.102216e+02 4.397058e+01 -2.195672e+02 249 247 247
-1.712135e+02 -6.051829e+00 -1.778990e+01 59 61 54
-1.434359e+02 2.464809e+01 -1.267650e+02 239 226 194
-5.641053e+01 -9.767431e+00 1.387366e+01 136 134 121
-1.937127e+02 -8.288750e+00 -6.718233e+00 178 173 147
-1.379678e+02 2.416171e+01 -1.239076e+02 183 176 141
-2.118115e+02 -1.548894e-01 -1.457454e+01 230 221 171
-1.616693e+02 2.809479e+01 -1.392926e+02 173 181 101
-3.099365e+02 4.252453e+01 -2.207308e+02 128 118 121
-2.118975e+02 2.852294e+00 -1.376828e+01 233 229 195
-2.117952e+02 3.345315e+00 -1.355115e+01 227 222 182
-2.117952e+02 3.345315e+00 -1.355115e+01 227 222 182
-2.643592e+02 1.026597e+01 -4.687143e+01 198 190 145
-1.761441e+02 1.657578e+00 6.404911e+00 60 56 37
-1.950161e+02 -9.147547e+00 -5.529298e+00 198 184 153
-1.938686e+02 -6.967230e+00 -5.776529e+00 54 44 21
-3.000910e+02 2.296942e+00 -6.943939e+01 58 50 27
-2.290071e+02 2.181466e-01 -2.642283e+01 40 35 12
-1.761367e+02 -2.021878e+00 5.972109e+00 182 178 133
-1.941910e+02 -2.378914e-01 -4.205208e+00 84 81 39
-2.467515e+02 7.990168e+00 -3.507885e+01 238 227 180
-1.940441e+02 3.146668e+00 -3.901944e+00 73 66 30
-1.940441e+02 3.146668e+00 -3.901944e+00 73 66 30
-5.806055e+01 1.856905e+01 -6.157541e+01 254 232 183
-5.764963e+01 1.848749e+01 -6.115922e+01 254 232 183
-1.576105e+00 -2.410789e+00 1.154718e+00 139 142 148
-3.433131e+02 2.470371e+01 -1.390239e+02 250 249 229
-1.020206e+02 2.287275e+01 -1.048446e+02 247 231 206
-3.254362e+02 2.205071e+01 -1.308361e+02 254 254 237
-3.264485e+02 2.507692e+01 -1.370564e+02 200 193 171
-3.284133e+02 2.568290e+01 -1.366603e+02 239 225 197
-3.311519e+02 3.024762e+01 -1.394061e+02 212 204 171
-2.000334e+00 -2.033647e+00 2.215107e+00 213 190 155
-5.832459e+01 1.432550e+01 -6.311848e+01 227 199 141
-1.038849e+02 2.325381e+01 -1.058964e+02 178 162 140
-1.015210e+02 2.385365e+01 -1.041619e+02 216 199 169
-1.862552e+00 -2.181513e+00 1.792400e+00 170 171 164
-3.138213e+00 -1.604089e+00 2.848238e+00 177 177 174
-8.721822e+00 1.683199e+00 -2.140511e+00 35 41 52
-2.060495e+00 -2.141513e+00 2.332932e+00 148 59 31
-2.012397e+00 -2.109385e+00 2.222727e+00 143 70 55
-1.993662e+00 -2.093495e+00 2.166038e+00 138 69 59
-1.980693e+00 -2.085892e+00 2.132720e+00 136 70 55
-1.980693e+00 -2.085892e+00 2.132720e+00 136 70 55
-1.894577e+00 -1.978096e+00 2.007216e+00 217 199 158
-1.012847e+02 2.084851e+01 -1.050441e+02 232 223 163
-4.444962e+02 3.439220e+01 -2.034065e+02 104 101 84
-1.790123e+00 -2.015316e+00 1.718541e+00 213 202 183
-2.019761e+00 -2.151918e+00 2.234693e+00 227 216 197
-3.146409e+02 4.132046e+01 -2.075053e+02 238 240 229
-5.854790e+01 1.408391e+01 -6.318959e+01 219 180 130
-1.812272e+00 -2.529217e+00 1.723497e+00 226 221 209
-1.732839e+00 -2.380902e+00 1.459629e+00 178 193 186
-2.110537e+00 -2.372256e+00 2.385269e+00 253 245 228
-1.780219e+00 -1.892655e+00 1.766904e+00 221 185 162
-1.554031e+00 -2.109689e+00 1.161141e+00 203 199 191
-1.788510e+02 -9.949523e+00 3.728794e+00 47 50 40
-7.716127e+00 2.202882e+00 -4.290848e+00 149 192 233
-1.682454e+02 -6.218681e+00 -1.609251e+01 63 65 63
-1.114958e+01 6.477589e-02 2.923221e+00 180 201 218
-1.399340e+02 -1.195890e+01 2.555695e+01 119 114 83
-1.753915e+02 -1.303469e+00 5.593888e+00 178 174 132
-1.393495e+02 -2.968133e+00 2.817659e+01 78 77 51
-8.799393e+00 2.485030e+00 -5.270986e+00 66 75 85
-1.938667e+02 -6.957897e+00 -5.767921e+00 66 60 39
-1.395986e+02 -8.256680e+00 2.684651e+01 62 57 38
-2.289136e+02 -1.547065e+00 -2.630392e+01 242 235 202
-1.395491e+02 -7.496498e+00 2.657512e+01 221 213 178
-1.399749e+02 -5.265958e+00 2.781740e+01 231 220 191
-2.649379e+02 7.237366e+00 -4.746045e+01 216 208 164
-1.401557e+02 -1.917931e+00 2.774295e+01 184 193 146
-1.761974e+02 6.058629e+00 6.957874e+00 57 56 23
-1.402434e+02 2.500324e+00 2.903758e+01 207 210 165
-8.757762e+01 -4.868459e+00 -8.449452e+00 42 40 22
-2.151276e+02 -3.741142e+00 -3.126731e+01 254 202 173
-2.021657e+02 -2.818704e+00 -3.422219e+01 58 73 40
-2.195055e+02 -8.469698e-01 -4.642004e+01 57 58 56
-2.639719e+02 2.995285e-01 -4.775717e+01 82 73 58
-2.026913e+00 -2.539679e+00 2.098451e+00 165 177 183
-8.887392e+01 -4.359550e+00 -7.039026e+00 73 65 42
-1.790850e+02 -5.067482e+00 -1.995829e+01 103 107 60
-2.332614e+02 4.526953e-02 -5.329389e+01 58 63 43
-2.274608e+02 -5.498455e+00 -2.650142e+01 175 151 120
-2.285044e+02 -4.125227e+00 -2.717026e+01 189 168 138
-2.289365e+02 -4.481970e+00 -2.610639e+01 75 71 39
-1.905312e+00 -2.415401e+00 1.898853e+00 63 78 94
-1.502083e+00 -1.732492e+00 1.160673e+00 210 202 194
-8.803566e+01 -4.628312e+00 -5.874496e+00 74 72 34
-1.663968e+00 -1.681621e+00 1.591259e+00 221 220 215
-1.195149e+01 5.764375e-01 1.614655e+00 35 39 39
-1.583592e+00 -2.387594e+00 1.222561e+00 218 217 211
-1.583592e+00 -2.387594e+00 1.222561e+00 218 217 211
-1.909066e+00 -2.579319e+00 1.925297e+00 223 221 211
-1.964848e+00 -2.614926e+00 2.040892e+00 227 227 222
-1.567158e+00 -2.237504e+00 1.123771e+00 207 204 201
-1.740802e+00 -2.205166e+00 1.504141e+00 174 173 174
-1.948443e+00 -2.422824e+00 1.944858e+00 171 186 190
-1.939079e+00 -2.099924e+00 2.076747e+00 212 200 187
-1.942635e+00 -2.101124e+00 2.074785e+00 212 200 187
-1.956973e+00 -2.522759e+00 2.007798e+00 165 177 180
-1.807422e+00 -2.162419e+00 1.674358e+00 188 182 169
-1.726275e+00 -2.526464e+00 1.449130e+00 212 210 197
-2.078565e+00 -2.599921e+00 2.278597e+00 177 190 188
-1.607241e+00 -2.398730e+00 1.212297e+00 217 216 208
-1.615820e+00 -2.396725e+00 1.266884e+00 39 39 43
-1.806576e+00 -1.908678e+00 1.770216e+00 135 69 66
-1.955492e+00 -2.613458e+00 2.049371e+00 230 230 225
-1.939909e+00 -2.014140e+00 2.084130e+00 236 193 179
-1.929660e+00 -2.009883e+00 2.092135e+00 236 193 179
-2.434235e+00 -1.062766e+00 1.812021e+00 27 29 28
-1.302362e+01 6.190245e-01 2.419647e+00 107 122 143
-1.126842e+02 -1.633423e+01 3.269881e+01 205 204 140
-1.577783e+02 -1.309808e+01 1.548751e+01 166 160 134
-5.709038e+02 -1.071697e+01 -5.844355e+00 150 156 136
-2.350856e+00 -9.344685e-01 2.509136e+00 43 44 66
-1.936833e+02 -6.100640e+00 -5.750962e+00 113 111 92
-1.665410e+01 1.028874e+00 -2.068467e+01 216 218 209
-1.400212e+02 -1.455394e+01 2.394861e+01 150 155 104
-1.396765e+02 -8.930869e+00 2.644299e+01 215 212 174
-5.802810e+02 -1.033183e+00 -1.639185e+00 166 169 143
-5.546051e+01 -9.580568e+00 1.289254e+01 254 253 241
-1.030558e+02 -1.629178e+01 4.684817e+01 119 125 82
-1.400498e+02 -1.001619e+01 2.676513e+01 111 107 77
-3.420295e+02 1.616033e+01 -1.213300e+02 32 32 39
-1.577167e+02 -4.771702e+00 1.662758e+01 73 68 50
-1.940535e+02 -8.974960e-01 -4.823421e+00 91 88 60
-2.290043e+02 8.960402e+00 -2.328010e+01 80 69 50
-1.400700e+02 -1.586839e+00 2.759462e+01 41 43 25
-1.303027e+02 -1.192711e+01 1.535444e+01 192 187 172
-3.012725e+02 7.347367e+00 -9.187953e+01 199 209 137
-3.726914e+02 1.040701e+01 -1.113542e+02 70 66 51
-2.297172e+02 8.758445e-01 -2.567675e+01 236 231 210
-1.399297e+02 -7.467569e+00 2.740301e+01 97 94 58
-1.398962e+02 -3.372742e+00 2.689703e+01 221 215 186
-1.398962e+02 -3.372742e+00 2.689703e+01 221 215 186
-1.395412e+02 -3.290694e+00 2.801519e+01 84 76 63
-3.672754e+02 3.542090e+01 -1.034042e+02 198 198 176
-1.596110e+02 -1.235623e+01 1.455155e+01 51 47 35
-3.041035e+02 6.755151e-01 -6.944599e+01 199 192 133
-2.833652e+02 8.349128e-01 -5.933432e+01 35 37 29
-2.663495e+02 -1.035524e+00 -4.930581e+01 45 46 36
-3.415529e+00 -5.540449e-02 -4.036874e+00 150 147 124
-1.979359e+00 -2.139634e+00 2.127053e+00 208 198 174
-1.585499e+02 -1.251882e+01 1.365672e+01 55 54 49
-2.297089e+02 -1.556168e+00 -2.681390e+01 38 38 27
-2.145179e+02 -1.826144e+00 -4.248263e+01 54 57 40
-2.834547e+02 6.928123e+00 -5.670500e+01 155 143 96
-2.490181e+02 7.812570e+00 -3.441770e+01 222 207 147
-2.112916e+02 4.430733e+00 -1.343286e+01 55 50 32
-1.941322e+02 -7.807485e-02 -4.514516e+00 181 162 111
-1.765123e+02 -2.262099e-01 7.306259e+00 189 173 115
-1.315437e+02 -1.005539e+01 6.841968e+00 151 145 86
-1.767497e+02 -6.717566e+00 5.082609e+00 51 50 32
-1.762059e+02 -4.907831e+00 5.309960e+00 63 57 31
-2.116591e+02 1.493640e+00 -1.411030e+01 211 187 125
-2.407698e+00 -8.612267e-01 1.747527e+00 76 72 60
-2.417971e+00 -8.625577e-01 1.750385e+00 76 72 60
-1.039269e+02 -1.851405e+01 4.581990e+01 54 50 48
-1.038106e+02 -1.911431e+01 4.757362e+01 67 62 47
-1.042528e+02 -1.639655e+01 4.758902e+01 176 173 126
-1.119747e+02 -2.075258e+01 5.487770e+01 195 198 185
-1.048997e+02 -1.738356e+01 4.551829e+01 186 187 178
-1.208296e+00 -3.389348e-01 -1.311573e+01 233 236 238
-1.027860e+02 -1.903025e+01 4.446626e+01 175 171 119
-1.035169e+02 -1.869224e+01 4.756885e+01 51 52 44
-1.035150e+02 -1.831695e+01 4.685920e+01 114 109 79
-1.040106e+02 -1.839483e+01 4.703424e+01 114 109 79
-1.039558e+02 -6.747757e+00 4.919478e+01 187 184 143
7.869745e+00 -3.281640e+00 -1.301009e+00 114 119 83
-1.037351e+02 -6.866136e+00 4.840447e+01 143 144 119
-1.041818e+02 -1.968865e+01 4.787814e+01 54 56 44
-1.118519e+02 -1.958850e+01 5.355811e+01 77 94 100
-2.306464e+02 3.499456e+00 -2.653607e+01 37 33 34
-1.231321e+02 -5.180086e+00 3.847105e+01 32 33 30
1.557765e+01 -2.099434e+00 -4.318908e+00 53 35 26
-6.419441e+01 -1.665347e+01 3.772058e+01 110 113 107
-1.006954e+02 -1.930457e+01 4.622696e+01 191 188 143
-1.035501e+02 -1.896169e+01 4.784950e+01 43 46 26
-2.632359e+02 -1.256327e+00 -4.855086e+01 64 56 53
-2.965156e+02 1.776350e+00 -6.668288e+01 185 194 152
-3.302190e+02 6.332340e+00 -8.936056e+01 75 72 70
-2.650790e+02 1.218967e+00 -4.782827e+01 58 58 52
-1.226322e+02 -2.333056e+00 4.014875e+01 208 208 174
-2.654566e+02 1.931636e+01 -4.291936e+01 119 118 118
-3.432501e-01 2.051458e-01 -1.515862e+01 232 231 226
-2.261350e+00 -2.374698e+00 2.715079e+00 25 33 44
-1.661337e+01 1.128842e+00 -2.111701e+01 190 191 182
-1.235062e+02 -1.586590e+01 3.869521e+01 79 88 94
-1.224479e+02 -1.535783e+01 3.831819e+01 172 174 157
-2.827053e+02 5.676133e+00 -8.398501e+01 81 83 81
-2.827053e+02 5.676133e+00 -8.398501e+01 81 83 81
-7.154757e+01 -1.679806e+01 3.868495e+01 178 180 168
-3.335154e+02 1.896608e+01 -1.375755e+02 251 254 253
-2.471856e+02 -7.451717e-01 -3.734667e+01 212 203 161
-1.396317e+02 -5.888452e+00 2.756881e+01 225 221 190
-2.654704e+02 8.880830e+00 -4.724447e+01 221 222 174
-1.222969e+02 -4.209760e+00 3.954467e+01 223 221 197
-5.396378e+00 4.690961e-01 -4.815765e+00 35 39 40
-5.015945e+00 -9.981693e-01 -5.062247e+00 113 115 121
-2.309004e+00 -2.709133e+00 2.749081e+00 19 19 21
-1.544966e+00 -2.244472e+00 1.126387e+00 234 246 249
-3.719117e+00 -1.469158e+00 3.327118e+00 158 173 178
-3.719117e+00 -1.469158e+00 3.327118e+00 158 173 178
-1.816633e+00 3.088096e-01 -1.732759e+00 243 245 245
-1.765974e+01 3.402432e-01 -1.039499e+01 25 31 28
2.579880e+00 1.577744e+00 -1.978575e+01 254 254 253
1.430289e+00 1.072004e+00 -1.841498e+01 248 248 244
-1.144775e+00 -1.285989e+00 -1.060472e+00 232 157 58
-4.795382e+00 -8.303342e-01 -4.816062e+00 123 140 162
-9.561730e+00 2.398125e+00 -5.482704e+00 59 56 64
8.208329e+00 -3.316053e+00 -1.273192e+00 222 221 224
8.991261e+00 1.074311e-01 -1.314579e+01 43 43 45
8.996236e+00 1.088810e-01 -1.314330e+01 43 43 45
7.841164e+00 -3.203171e+00 -1.695998e+00 112 120 107
-4.720662e+00 -1.696709e+00 -4.986735e+00 183 196 209
-4.720662e+00 -1.696709e+00 -4.986735e+00 183 196 209
-7.562334e+00 -6.449100e-01 -6.149534e+00 78 87 86
-1.701932e+01 1.171201e-01 -1.008842e+01 82 91 95
-7.298505e+01 -1.507652e+01 3.251969e+01 99 99 99
-9.758781e+00 2.450740e+00 -5.747775e+00 117 159 194
-9.530781e+00 1.236117e+00 -1.298501e-01 33 44 61
-8.732330e+01 -1.458385e+01 3.176037e+01 193 189 129
-3.359661e+02 2.221014e+01 -1.378107e+02 73 73 90
1.506413e+01 -1.997653e+00 -4.818076e+00 42 43 37
1.500710e+01 -1.961880e+00 -4.898484e+00 44 45 51
9.995039e+00 -2.469400e+00 -4.042996e+00 242 242 242
1.178034e+00 1.082709e+00 -1.802788e+01 146 151 151
-1.324269e+00 -3.044377e-01 -1.351690e+01 236 238 237
-5.589922e+00 -1.157157e+00 -5.346705e+00 108 113 117
-5.383612e+00 -4.596126e-01 -4.950556e+00 134 142 148
-5.382966e+00 -4.602493e-01 -4.950179e+00 134 142 148
-1.600296e+00 -3.964198e-01 -7.981260e-01 189 191 192
-2.029225e+00 2.393518e-01 -2.450934e+00 194 125 72
-1.344540e+01 -1.983142e-01 -8.528269e+00 82 90 91
-5.427937e+01 -1.674377e+01 4.109266e+01 132 148 154
-5.461977e+01 -1.684538e+01 4.129411e+01 132 148 154
-1.001854e+02 -1.889630e+01 4.478254e+01 188 187 139
-4.057225e+02 3.803424e+01 -1.253379e+02 93 82 74
1.537381e+01 -2.033517e+00 -4.543761e+00 40 31 29
1.537381e+01 -2.033517e+00 -4.543761e+00 40 31 29
1.528435e+01 -2.028709e+00 -4.618064e+00 38 31 34
1.224372e+01 -1.159964e+00 -8.278894e+00 148 133 119
-2.141589e+00 -7.383173e-01 -1.229730e+01 200 197 194
-5.325918e+00 -1.905233e+00 -5.388977e+00 21 19 25
-4.673428e+00 -1.433991e+00 -4.943338e+00 49 48 55
-4.682827e+00 -1.435023e+00 -4.943196e+00 49 48 55
-5.449651e+00 -1.508770e+00 -5.364218e+00 102 106 109
-1.869165e+01 -9.348161e-01 -1.109642e+01 156 161 157
-5.432985e+01 -1.675758e+01 4.060663e+01 132 141 141
-6.609072e+01 -1.772820e+01 4.260160e+01 123 125 101
-1.004680e+02 -1.800525e+01 4.184885e+01 193 189 143
-9.578576e+01 -7.356510e-02 -2.770854e+01 132 133 141
-9.996179e+01 -1.666097e+01 4.648658e+01 79 98 104
-3.195354e+02 1.352636e+01 -7.788168e+01 62 68 57
1.550343e+01 -2.084547e+00 -4.377271e+00 63 45 46
-2.052164e+00 -2.678850e+00 2.093978e+00 234 238 238
-3.717920e+00 -3.439675e+00 3.866860e+00 162 181 192
-3.430395e+00 -3.148421e+00 3.784026e+00 246 251 251
-4.571512e+00 -1.008072e+00 -4.823716e+00 57 56 57
-4.637271e+00 -1.040811e+00 -4.826081e+00 57 56 57
-2.034326e+00 -2.059207e+00 2.166673e+00 224 189 195
-1.673764e+01 1.048441e+00 -2.086653e+01 210 212 202
-2.198070e+00 -8.498435e-02 -3.113775e+00 182 193 188
-5.424477e+00 -2.602073e-01 -4.815547e+00 25 22 24
-2.499206e+00 -8.141096e-01 1.689770e+00 58 61 74
-1.918290e+01 7.662916e-01 -1.083207e+01 22 17 23
-1.892917e+01 8.960847e-01 -1.064457e+01 106 108 106
-1.258696e+01 2.291051e+00 -7.493610e+00 165 175 174
-3.881429e+02 2.535081e+01 -1.166322e+02 210 207 175
-1.034240e+02 -5.249940e+00 4.794095e+01 116 109 93
1.548685e+01 -2.040562e+00 -4.399843e+00 234 204 164
-4.454290e+00 -1.914159e+00 -8.453125e+00 210 211 205
-4.451311e+00 -1.909012e+00 -8.456156e+00 210 211 205
-5.132289e+00 -1.349031e+00 -5.223144e+00 104 106 107
-2.092073e+00 -1.982074e+00 2.466738e+00 239 243 237
-3.385131e+00 -1.050480e-02 -4.068148e+00 165 171 160
-2.480968e+00 -1.062981e+00 2.112055e+00 36 42 69
-1.893003e+01 -9.103690e-01 -1.124940e+01 23 29 44
-7.870819e+00 4.368597e-01 -5.973876e+00 119 130 134
-7.940679e+00 4.959777e-01 -6.105032e+00 121 130 134
-4.540308e+01 -1.275586e+01 2.618533e+01 244 246 236
-4.540308e+01 -1.275586e+01 2.618533e+01 244 246 236
-1.868582e+01 5.465896e-01 -1.060557e+01 10 8 22
-5.336752e+01 -1.590911e+01 3.738261e+01 93 97 108
-7.525053e+01 -1.644189e+01 3.722657e+01 26 28 24
-3.265543e+02 1.859729e+01 -1.182220e+02 252 254 254
-3.004456e+02 1.294022e+01 -6.698247e+01 86 82 76
-1.031545e+02 -6.819342e+00 4.799410e+01 100 98 82
-1.036738e+02 -5.493041e+00 4.782991e+01 45 46 38
-2.505028e+02 1.132848e+01 -3.411023e+01 71 65 53
-1.028850e+02 -1.927460e+00 4.861156e+01 48 46 52
1.565185e+01 -2.115753e+00 -4.152854e+00 228 183 155
-7.509197e-01 -1.150526e-01 -1.437633e+01 210 210 204
-2.066807e+00 -2.630116e+00 2.191248e+00 110 115 126
-4.398185e+00 -8.627790e-01 -4.594359e+00 25 26 26
-1.700763e+00 1.478181e-01 -2.050116e+00 243 235 233
-1.985526e+01 -5.171218e-01 -1.147259e+01 146 145 144
-3.750310e+01 -1.240012e+01 2.569389e+01 182 183 111
-7.279432e+01 -1.657840e+01 4.126115e+01 90 101 54
-9.506529e+00 1.140553e+00 -5.902341e-02 48 70 115
-8.946272e+01 -1.466528e+01 3.023314e+01 45 49 51
-3.020776e+02 2.924267e+00 -6.869199e+01 181 181 153
-3.346187e+02 1.197331e+01 -1.127864e+02 167 164 126
-2.158068e+02 2.498816e-01 -3.021475e+01 216 196 175
-2.302653e+02 8.139723e+00 -2.331817e+01 203 202 174
-1.717394e+00 -7.625563e-01 1.842820e-01 196 205 208
-2.426564e+00 -1.112765e+00 1.866027e+00 175 178 158
-2.495810e+00 -8.850481e-01 1.991807e+00 18 17 17
-2.446316e+00 -9.942982e-01 1.884450e+00 10 11 11
-9.204094e+00 8.222079e-01 1.121746e+00 40 46 59
-2.134379e+02 -6.775000e+00 -1.773833e+01 66 63 48
-1.892177e+00 -1.915313e+00 2.131716e+00 215 213 195
-2.076243e+00 -1.961677e+00 2.514402e+00 203 195 167
-1.938785e+02 -7.599149e+00 -6.318098e+00 123 109 80
-1.949157e+02 -5.886640e+00 -5.842585e+00 107 96 62
-2.376776e+00 -8.798862e-01 1.200097e+00 21 24 30
-2.476670e+00 -8.579387e-01 1.940774e+00 194 189 180
-5.664256e+00 -2.052637e+00 -7.899799e+00 61 55 44
-8.813246e+01 -9.025283e+00 6.834621e+00 59 58 30
-1.450421e+02 -8.573856e+00 -2.813384e+00 44 41 39
-1.936317e+02 -8.291777e+00 -6.705062e+00 172 153 120
-2.114196e+02 -6.003623e+00 -1.567580e+01 143 123 90
-2.046541e+00 -1.709036e+00 2.181769e+00 184 183 179
-2.464272e+00 -8.459091e-01 1.909882e+00 203 195 175
-2.503906e+00 -8.592229e-01 1.958866e+00 21 23 28
-3.256082e+01 1.754982e+00 -2.588649e+01 182 178 169
-1.938841e+02 -8.326365e+00 -7.273310e+00 44 43 15
-2.136345e+02 -2.552349e+00 -3.014692e+01 104 107 85
-1.936009e+02 5.068058e+00 -3.879418e+00 37 35 23
-2.084575e+00 -2.153748e+00 2.396638e+00 121 60 46
-2.084575e+00 -2.153748e+00 2.396638e+00 121 60 46
-1.974816e+00 -2.079075e+00 2.140906e+00 115 52 48
-2.070639e+00 -2.110524e+00 2.376958e+00 206 164 149
-4.692670e+00 -1.841695e+00 -8.665532e+00 158 148 131
-4.515152e+01 -7.874456e+00 4.238534e+00 69 60 55
-1.325820e+02 -1.037702e+01 8.363641e+00 158 150 84
-1.350512e+02 -9.629341e+00 3.397548e+00 49 49 47
-1.635802e+02 -6.796928e+00 -1.201522e+01 122 127 57
-1.756651e+02 -5.369117e+00 -1.870029e+01 155 157 81
-1.992823e+02 -3.215448e+00 -3.284723e+01 123 118 50
-2.047252e+00 -2.120900e+00 2.311460e+00 132 72 74
-2.047252e+00 -2.120900e+00 2.311460e+00 132 72 74
-2.085068e+00 -1.981932e+00 2.551644e+00 215 208 190
-2.442539e+00 -8.884165e-01 1.890764e+00 15 10 13
-3.227996e+01 -7.016525e+00 2.997996e+00 132 123 111
-1.938113e+02 -8.517564e+00 -7.778152e+00 153 150 106
-1.765356e+02 5.027817e-01 6.749937e+00 209 185 134
-2.115085e+02 8.081552e+00 -1.371173e+01 188 192 149
-1.765798e+02 6.246018e+00 7.358573e+00 186 189 158
-1.583232e+02 -5.177278e+00 1.635060e+01 77 77 80
-2.644178e+02 6.002430e+00 -4.755307e+01 52 56 50
-2.418907e+00 -8.112445e-01 1.668928e+00 30 31 31
-2.354839e+00 -1.021355e+00 1.682823e+00 61 66 56
-1.942554e+01 -1.822354e-01 -1.700486e+01 128 131 132
-1.270968e+01 3.358640e+00 -1.645253e+00 108 121 121
-1.872032e+00 6.707083e-01 -1.885114e+00 147 164 182
-2.377918e+00 -8.535280e-01 1.678372e+00 47 47 44
-2.410446e+01 -1.296516e+01 -3.433930e+00 110 103 82
-1.797342e+00 -2.420913e+00 1.574247e+00 117 131 129
-1.671925e+00 -2.467632e+00 1.340119e+00 59 57 60
-2.069758e+00 -2.109461e+00 2.377479e+00 204 165 150
-1.561440e+02 -7.575163e+00 -8.749239e+00 63 63 54
-2.451308e+02 1.295819e+00 -6.027184e+01 79 78 42
-1.616280e+02 -7.058892e+00 -1.044580e+01 155 154 70
-1.960531e+02 -3.364344e+00 -3.123453e+01 166 167 73
-2.296358e+02 -4.734348e+00 -2.990844e+01 101 92 53
-2.293410e+02 -2.475742e+00 -2.609806e+01 121 107 60
-1.640882e+02 -6.524862e+00 -1.228656e+01 124 128 54
-2.013627e+02 -3.160068e+00 -3.362273e+01 143 127 58
-2.126031e+02 -5.791834e+00 -1.619646e+01 143 125 84
-2.123842e+02 -2.690416e+00 -1.553022e+01 197 178 126
-1.394006e+02 -1.400106e+01 2.527394e+01 57 54 50
-1.392248e+02 -1.441246e+01 2.625526e+01 68 67 41
-1.941202e+02 -6.227865e+00 -5.118590e+00 47 41 22
-1.393892e+02 -3.319020e+00 2.681898e+01 203 196 161
-1.395414e+02 -7.493386e+00 2.657073e+01 221 213 178
-1.396874e+02 -6.557601e+00 2.649149e+01 158 149 129
-3.227464e+02 1.566894e+01 -1.193519e+02 104 107 97
-8.865512e+01 -1.478707e+01 3.064168e+01 52 60 49
-1.583274e+02 -1.124043e+01 1.541826e+01 78 76 54
-1.356050e+02 -9.531037e+00 2.985601e+00 52 55 44
-1.700493e+00 -2.464696e+00 1.420719e+00 147 146 157
-8.770039e+01 -1.503904e+01 3.092397e+01 90 99 94
-1.287132e+02 -1.129915e+01 1.524778e+01 112 87 60
-1.583947e+02 -1.138667e+01 1.620534e+01 122 111 83
-1.583202e+02 -5.934543e+00 1.710153e+01 87 79 40
-1.758538e+02 -9.977133e+00 4.544933e+00 33 35 28
-1.582030e+02 -8.423186e+00 1.620907e+01 43 46 29
-1.580240e+02 -1.119312e+01 1.496926e+01 107 97 68
-1.760749e+02 -8.569026e+00 4.462927e+00 40 42 30
-1.582590e+02 -8.685069e+00 1.582552e+01 166 151 104
-1.581869e+02 -8.525990e+00 1.557413e+01 58 59 45
-1.581793e+02 -8.531330e+00 1.557194e+01 58 59 45
-1.581836e+02 -7.886092e+00 1.589906e+01 102 99 68
-1.643514e+00 -2.317201e+00 1.280331e+00 91 95 107
-1.585276e+02 -1.214543e+01 1.609034e+01 62 55 40
-1.757151e+02 -1.040467e+01 4.579537e+00 54 56 40
-1.583479e+02 -9.378307e+00 1.584996e+01 49 50 26
-1.584647e+02 -8.306316e+00 1.659722e+01 146 133 98
-1.593846e+02 -6.393309e+00 1.740382e+01 195 175 125
-5.900639e+02 -1.769644e+01 3.702700e+00 125 137 111
-1.881189e+00 -2.528076e+00 1.827442e+00 217 212 198
-2.280840e+00 1.886764e-01 -2.926439e+00 36 36 29
-7.892181e+00 1.663726e+00 -1.715427e+00 56 65 71
-1.579992e+02 -1.113492e+01 1.474042e+01 47 48 35
-1.578743e+02 -1.113056e+01 1.554321e+01 61 60 41
-1.581395e+02 -1.009142e+01 1.509156e+01 38 42 25
-1.582430e+02 -9.777012e+00 1.597443e+01 48 57 29
-1.583305e+02 -9.396654e+00 1.563200e+01 191 169 135
-1.584809e+02 -8.106144e+00 1.649583e+01 66 68 43
-1.585472e+02 -7.667896e+00 1.679475e+01 175 162 112
-1.581803e+02 -7.326074e+00 1.603849e+01 199 184 149
-1.581803e+02 -7.326074e+00 1.603849e+01 199 184 149
-1.931311e+02 -1.000354e+00 -4.375624e+00 216 194 147
-6.435668e+00 -2.016555e+00 -1.028232e+01 90 85 63
-1.109699e+00 -1.208159e+00 -1.204425e+00 221 137 17
-2.062096e+00 -1.916345e+00 2.442891e+00 102 106 104
-1.518565e+00 -1.375069e+00 1.042816e+00 255 254 252
-1.581327e+02 -9.906279e+00 1.503945e+01 123 108 79
-1.583930e+02 -8.217227e+00 1.551095e+01 156 143 109
-1.429048e+00 -1.497367e+00 -1.666095e+00 87 88 77
-1.584097e+02 -8.048337e+00 1.563991e+01 205 185 146
-1.584258e+02 -7.757345e+00 1.645887e+01 66 55 17
-2.110984e+00 -2.011169e+00 2.568290e+00 224 226 224
-1.097828e+02 -1.927331e+01 5.323776e+01 50 82 85
-3.124998e+02 -5.230818e+01 1.580725e+02 241 245 244
-3.223709e+02 -5.378267e+01 1.606372e+02 132 153 156
-3.223709e+02 -5.378267e+01 1.606372e+02 132 153 156
-1.007784e+02 -1.957530e+01 4.692010e+01 179 175 124
-3.256720e+02 -4.778560e+01 1.482191e+02 95 104 125
-1.036616e+02 -1.817629e+01 4.759716e+01 50 52 34
-3.190547e+02 -4.808758e+01 1.487279e+02 241 244 247
-1.515420e+00 -2.247780e+00 1.028543e+00 248 251 237
-2.830995e+02 -5.020895e+01 1.400403e+02 240 246 241
-3.703821e+02 -4.809767e+01 1.075013e+02 210 216 205
-1.033649e+02 -1.420268e+01 4.739181e+01 207 205 161
-3.176439e+02 -5.170022e+01 1.604658e+02 139 133 143
-2.069231e+00 -3.002363e-01 -2.859111e+00 164 178 192
-2.032929e+00 6.568220e-01 -2.335042e+00 73 82 98
-1.038949e+02 -1.913612e+01 4.761150e+01 76 72 63
-8.524085e+01 -2.011328e+01 5.913419e+01 163 163 150
-2.101445e+02 -6.548421e+00 -1.770091e+01 85 89 82
-8.430369e+01 -2.114926e+01 5.723738e+01 56 56 52
-1.609715e+02 -3.116568e+01 9.161266e+01 117 127 94
-6.931420e+01 -1.747135e+01 4.118961e+01 125 129 111
-1.761703e+02 4.787944e-01 6.436738e+00 220 217 179
-1.835179e+00 -1.808523e+00 1.835254e+00 249 250 250
-4.329448e+00 -7.464716e-01 -4.586238e+00 119 121 117
-4.312572e+00 -7.445059e-01 -4.591103e+00 119 121 117
-8.495315e+01 -1.965686e+01 5.824532e+01 73 74 52
-8.531090e+01 -1.814660e+01 5.782226e+01 54 55 50
-1.256281e+00 -2.229140e+00 -7.972752e-01 133 144 138
-2.059765e+00 -2.692180e+00 2.262492e+00 238 238 234
-2.058767e+00 -2.301319e+00 2.267813e+00 222 221 218
-4.971611e+00 -9.803214e-01 -4.964277e+00 138 139 141
-4.933711e+00 -9.682350e-01 -4.972756e+00 138 139 141
-1.402612e+01 2.435492e+00 -2.546203e+01 151 159 157
-8.536890e+01 -1.691254e+01 5.782730e+01 198 200 168
-1.399537e+02 -8.951056e+00 2.651193e+01 211 209 186
-1.930262e+02 7.055069e-01 -4.913169e+00 80 82 61
-1.749026e+00 -2.375621e+00 1.504796e+00 104 122 142
-7.496000e+01 -1.626601e+01 3.950551e+01 82 99 62
-8.177434e+00 1.996272e+00 -2.980541e+00 31 41 88
-8.469899e+01 -2.060268e+01 5.763050e+01 55 54 43
-1.358880e+01 2.969192e+00 -7.107941e+00 153 158 159
-2.468170e+02 3.821321e-01 -3.709273e+01 230 226 162
-1.934514e+02 -2.492373e+00 -5.423603e+00 182 177 150
-1.765838e+02 -3.459139e+00 6.223985e+00 230 226 182
-1.757739e+02 3.237103e+00 6.557221e+00 59 53 49
-1.278068e+00 -1.944109e+00 -7.059040e-01 30 36 76
-1.580182e+00 -2.321867e+00 1.169271e+00 136 144 153
-7.347580e+01 -1.721662e+01 4.001680e+01 48 53 48
-8.446329e+01 -1.514113e+01 3.302427e+01 50 56 48
-1.405990e+02 -1.446156e+01 3.930214e+01 215 228 208
-8.475289e+01 -1.152859e+01 5.780491e+01 68 78 70
-1.934761e+02 1.823677e+00 -4.170680e+00 219 214 178
-2.113806e+02 -3.056260e+00 -1.602846e+01 196 178 138
-1.449368e+00 -2.185165e-01 -1.391447e-01 210 214 225
-3.051763e+00 -2.575162e+00 -3.001514e+00 10 10 10
-6.501397e+00 1.637491e+00 -4.991661e+00 152 167 179
-2.231595e+00 3.958870e-01 -2.742935e+00 193 123 44
-8.785565e+01 -2.073462e+01 5.816072e+01 43 44 35
-4.199333e+00 -3.042931e+00 5.072176e+00 101 104 109
-2.639327e+00 7.207215e-01 -3.037852e+00 191 199 201
1.098054e+01 -1.889504e+00 -6.165242e+00 223 224 228
-6.856933e+00 6.248275e-01 -5.496811e+00 120 123 128
-2.098039e+01 1.816273e-01 -1.224429e+01 103 109 112
-6.093526e+01 -1.799638e+01 4.607635e+01 49 53 56
-5.001453e+00 -2.112826e+00 -5.339840e+00 114 120 126
-5.054895e+00 -1.102562e+00 -5.168145e+00 111 113 118
-8.831348e+00 2.419196e+00 -4.536681e+00 39 58 84
-9.356562e+00 3.047573e+00 -6.582442e+00 50 60 67
-1.002830e+02 -1.765095e+01 4.706030e+01 198 200 190
-4.825688e+00 -1.907402e+00 -5.129719e+00 10 12 11
-5.329502e+00 -1.783000e+00 -5.400085e+00 23 21 22
-5.350793e+00 -1.788697e+00 -5.394432e+00 23 21 22
-4.518277e+00 -1.585149e+00 -4.835334e+00 9 10 12
-1.099078e+00 -1.179465e+00 -7.365596e-01 139 99 81
-4.725390e+00 -6.544326e-01 -4.626050e+00 14 14 16
-5.570476e+00 -4.888323e-01 -5.103572e+00 23 23 26
-5.145458e+00 -3.456904e-01 -4.786420e+00 8 9 12
-1.350135e+01 -1.030611e-02 -8.882490e+00 84 94 95
-1.367633e+01 2.801781e+00 -7.391900e+00 116 165 208
-1.609281e+02 -4.348093e+00 -2.302644e+01 155 156 153
1.518835e+01 -2.014177e+00 -4.672691e+00 40 31 27
1.518835e+01 -2.014177e+00 -4.672691e+00 40 31 27
1.511509e+01 -2.013724e+00 -4.727382e+00 41 38 42
1.511509e+01 -2.013724e+00 -4.727382e+00 41 38 42
-2.221762e+00 -7.819175e-01 -1.195222e+01 211 215 215
-2.090492e+00 -7.431055e-01 -1.196621e+01 211 215 215
-4.157677e+00 -1.343357e+00 -4.742889e+00 110 113 116
-5.584449e+00 -1.156382e+00 -5.350166e+00 111 111 122
-6.048331e+00 -1.172849e+00 -5.498019e+00 100 104 104
-5.838521e+00 -9.572579e-01 -5.324626e+00 15 15 20
-5.035466e+00 -8.142678e-01 -5.002975e+00 116 118 122
-5.948963e+00 -5.875901e-01 -5.259338e+00 103 108 110
-5.412962e+01 -1.921047e+01 4.958206e+01 100 102 89
-1.368909e+01 2.967221e+00 -7.215678e+00 38 50 62
