ply
format ascii 1.0
element vertex 919
property float x
property float y
property float z
property uchar diffuse_red
property uchar diffuse_green
property uchar diffuse_blue
end_header
-1.419550e+00 -2.136048e+00 3.171431e+00 254 254 254
-2.018866e+00 -1.210546e+00 2.973537e+00 30 32 50
-1.370024e+00 4.811292e-01 -1.209664e+00 42 40 51
-1.254689e+01 2.175509e+00 -3.360560e+00 63 104 132
-1.831528e+02 2.925103e+01 -1.501419e+02 254 253 242
-3.400449e+02 2.322804e+01 -1.265681e+02 111 115 138
-2.687029e+02 8.898968e+00 -4.752903e+01 201 198 143
-2.504536e+02 7.201195e+00 -3.558968e+01 219 208 147
-3.529863e+02 2.584580e+01 -9.417792e+01 121 117 94
-3.354926e+02 2.544903e+01 -8.569327e+01 224 208 174
-2.904619e+00 -3.070968e+00 5.244129e+00 255 202 63
-3.917753e+00 -2.363559e+00 6.039952e+00 237 235 222
-2.045760e+00 -1.378987e+00 2.923633e+00 132 147 164
-4.507638e+00 -1.634414e+00 6.262159e+00 19 21 47
-1.865109e+02 -4.769574e+00 -2.355087e+01 111 122 67
-3.374891e+02 2.515121e+01 -1.246947e+02 95 101 107
-4.061812e+00 -3.780206e+00 5.781355e+00 222 227 223
-6.935972e+00 -3.884860e+00 5.626684e+00 200 217 228
-1.970529e+00 -1.299170e+00 2.840949e+00 27 33 60
-4.508543e+00 -2.109747e+00 6.192688e+00 255 254 252
-2.320007e+02 -3.710775e+00 -2.791501e+01 153 148 120
-2.316591e+02 -3.505306e+00 -2.694618e+01 135 128 100
-3.373796e+02 1.993991e+01 -1.218072e+02 217 217 215
-3.386345e+02 1.995179e+01 -1.223040e+02 217 217 215
-3.387174e+02 2.028999e+01 -1.196783e+02 255 255 250
-3.291430e+02 2.715581e+01 -1.391885e+02 127 125 156
-3.117555e+02 4.758645e+01 -2.141612e+02 124 125 158
-1.253965e+00 -2.832028e+00 2.529295e+00 222 220 208
-1.456351e+00 -2.209698e+00 3.149682e+00 238 233 223
-4.681409e+00 -9.707702e-01 3.534327e-01 175 175 170
-3.470168e+00 -2.385194e+00 5.002627e+00 199 205 211
-1.207200e+00 -2.304539e+00 2.700019e+00 238 239 237
-4.784171e+00 1.382345e+00 -2.311979e+00 154 201 243
-4.280449e-01 -1.547653e+00 -6.097100e-02 166 93 62
-1.522087e+00 -2.622323e+00 3.283514e+00 161 157 167
-1.924859e+00 -3.072737e+00 3.473041e+00 21 21 21
-1.924859e+00 -3.072737e+00 3.473041e+00 21 21 21
-7.935099e-01 -2.122393e+00 -7.094015e-01 167 180 186
-5.595758e+00 -2.040879e+00 -8.721519e+00 44 51 66
-2.193540e+00 -1.293597e+00 3.163588e+00 195 197 182
-8.653504e+01 -6.689835e+00 -5.535921e-01 164 60 63
-5.692017e+01 7.263112e+00 -4.768605e+01 226 215 181
-1.069741e+00 -2.231186e+00 3.428100e-01 17 19 18
-1.033239e+00 -2.222071e+00 3.113439e-01 17 19 18
-1.003000e+00 -1.822575e+00 1.926787e+00 106 106 111
-9.234744e+01 -9.917434e+00 1.121585e+01 183 173 148
-8.896646e+01 -7.951057e+00 5.622608e+00 105 107 92
-9.422423e+01 -1.077365e+01 1.411616e+01 184 175 146
-8.663881e+01 -7.076508e+00 1.066646e+00 243 113 99
-7.994699e-01 -2.058438e+00 -8.693818e-04 255 253 254
-8.915201e+01 -8.616664e+00 6.509212e+00 152 146 124
-8.709480e+01 -7.629116e+00 2.785433e+00 255 128 115
-7.687879e+00 1.566149e+00 -1.174231e+00 130 164 199
-1.321637e+01 5.356388e-01 3.557080e+00 107 125 148
-3.308612e+00 -3.660581e+00 4.951833e+00 178 190 190
-7.472103e-01 -5.545032e-01 -1.287052e+01 239 240 239
-7.502796e-01 -5.564090e-01 -1.287433e+01 239 240 239
-7.754664e-01 -2.060104e+00 -4.533803e-01 119 125 124
-2.876103e+00 -1.557114e+00 4.447295e+00 44 46 59
-1.340251e+00 -5.712331e-01 1.124600e+00 29 29 43
-1.320381e+00 -5.670443e-01 1.143428e+00 29 29 43
-8.556403e+01 -8.062446e+00 2.870551e+00 103 99 81
-9.370353e+01 -1.044765e+01 1.332658e+01 108 106 91
-9.356231e+01 -1.020870e+01 1.282077e+01 166 158 134
-8.381299e+00 2.110629e+00 -4.158367e+00 163 208 250
-1.323674e+01 -8.782472e+00 1.513899e+01 194 166 137
-1.584778e+00 -9.617449e-01 -1.171540e+01 219 219 214
-1.423182e+00 -2.025487e+00 3.128305e+00 90 94 106
-2.058399e+00 -1.327936e+00 3.079224e+00 23 23 31
-1.915462e+00 -1.198535e+00 2.682216e+00 21 27 35
-2.077475e+00 -1.123882e+00 3.070127e+00 34 36 49
-1.876795e+00 -9.823325e-01 2.559522e+00 25 29 37
-1.190964e+00 -4.530135e-01 8.595088e-01 141 136 136
-8.879668e+01 -8.277225e+00 4.410498e+00 192 178 149
-8.730239e+01 -7.460736e+00 1.137924e+00 235 124 110
-8.707064e+01 -7.280609e+00 6.313176e-01 246 120 106
-1.450454e+02 -9.539944e+00 2.239838e+00 179 186 114
-1.258487e+01 3.166965e+00 -8.848718e-01 55 90 121
-3.161943e+02 4.460044e+01 -2.270247e+02 64 63 74
3.586508e+00 -3.025224e+00 -3.608379e+00 247 249 247
3.577682e+00 -3.026592e+00 -3.613169e+00 247 249 247
-1.453144e+00 -2.955810e+00 3.006764e+00 241 241 237
-1.283018e+00 -2.858413e+00 2.645946e+00 238 240 237
-4.048148e+00 -3.858653e+00 5.682777e+00 74 79 81
-2.269178e+00 -3.053280e+00 3.475673e+00 18 19 21
-1.366900e+00 -2.591199e+00 2.759335e+00 242 242 244
-1.018082e+00 -1.678502e+00 1.920628e+00 81 82 93
-2.832105e+00 -1.989579e+00 4.347557e+00 255 254 254
-1.248855e+00 -8.643072e-01 9.674812e-01 71 69 90
-2.849501e+00 -1.649218e+00 4.539939e+00 254 254 255
-9.424484e+01 -1.015228e+01 8.114991e+00 85 79 71
-9.610912e+01 -1.060495e+01 1.539165e+01 72 72 60
-9.812747e+01 -1.110403e+01 1.727542e+01 114 107 81
-9.465443e+01 -8.977904e+00 1.028387e+01 203 190 146
-8.854822e+01 -6.726349e+00 1.802248e+00 150 131 92
-7.792158e+00 1.934395e+00 -2.352177e+00 27 35 64
-8.846706e+01 -5.709421e+00 -1.921727e+00 108 100 68
-9.417142e+01 -6.770452e+00 2.239424e+00 166 155 110
-1.318820e+02 -1.183364e+01 1.690866e+01 253 253 253
-5.526995e+01 8.110947e+00 -5.215336e+01 197 186 155
-3.112257e+02 4.612871e+01 -2.244260e+02 115 116 114
7.218622e-01 -5.638206e+00 5.376932e+00 190 174 149
-3.995209e+00 -3.417620e+00 3.659973e+00 111 117 115
-1.073067e+00 -2.286865e+00 2.211323e+00 253 251 242
-4.320351e+00 -2.457183e+00 6.175716e+00 151 149 152
-1.758449e+01 3.686843e-01 -1.935457e+01 60 67 77
-1.803646e+01 3.572702e-01 -1.915617e+01 150 153 116
-1.826716e+01 3.008389e-01 -1.903200e+01 203 203 183
-1.461809e+01 2.085755e+00 -2.486377e+01 159 155 139
-1.613933e+01 1.498706e+00 -2.279356e+01 121 120 118
-1.429848e+01 2.269308e+00 -2.549314e+01 164 164 161
-9.602325e+01 -1.188312e+01 1.641041e+01 38 39 29
-9.087457e+01 -8.113367e+00 6.616814e+00 109 108 74
-8.849109e+01 -5.596668e+00 -2.448044e+00 80 68 45
-8.557861e+00 2.508208e+00 -4.614714e+00 176 196 207
-1.460911e+02 -9.348742e+00 -4.542067e-01 43 44 30
-1.460961e+02 -9.350552e+00 -4.549405e-01 43 44 30
-1.322920e+01 -8.762966e+00 1.503324e+01 26 28 20
-1.360800e+00 -2.908729e+00 2.687612e+00 234 232 223
-1.139142e+00 -2.734733e+00 2.318817e+00 119 116 128
-1.290969e+00 -2.766351e+00 2.600745e+00 119 118 138
-2.732478e-01 -3.648380e-01 -1.377647e+01 219 217 209
-5.555984e-01 -1.521944e+00 -5.162250e-02 224 140 29
-2.001041e+00 -1.119375e+00 2.906364e+00 32 32 62
-7.894664e-01 -2.745798e-01 -1.046172e+00 204 204 194
-1.939977e+01 -3.357545e-01 -1.674401e+01 162 173 169
-1.674888e+01 9.388430e-01 -2.093271e+01 220 217 208
-1.480167e+01 2.036340e+00 -2.478126e+01 193 192 174
-6.474985e+01 -7.340297e+00 3.020538e+00 144 141 133
-2.812351e+01 4.045409e+00 -3.380529e+01 215 216 203
-8.949072e+01 -1.047167e+01 1.148406e+01 57 58 55
-8.817175e+01 -8.838851e+00 5.272334e+00 124 123 67
-9.522731e+01 -1.110589e+01 1.527549e+01 74 71 60
-9.352772e+01 -9.196977e+00 1.024692e+01 136 134 93
-9.184571e+01 -8.242029e+00 7.628486e+00 209 197 140
-8.840565e+01 -6.606767e+00 1.248514e+00 125 96 65
-8.547623e+00 2.523686e+00 -4.458645e+00 122 150 179
-1.464267e+02 -9.270931e+00 -8.833756e-01 49 48 43
-5.802755e+01 7.403416e+00 -4.801721e+01 242 228 202
-6.165220e+01 7.738809e+00 -4.814026e+01 140 157 80
-6.165220e+01 7.738809e+00 -4.814026e+01 140 157 80
-5.838772e+01 1.003938e+01 -5.484188e+01 194 187 132
-4.088775e+00 -3.782164e+00 5.811127e+00 60 61 64
-1.248527e+00 -2.588458e+00 2.488782e+00 242 243 237
-1.121730e+00 -2.288834e+00 2.302590e+00 248 244 243
-1.128093e+00 -2.290895e+00 2.301153e+00 248 244 243
-2.465599e-02 -6.329438e-01 -8.529938e-01 189 197 195
-2.412054e+00 -1.520174e+00 3.279033e+00 117 129 153
-1.708822e+00 -1.124029e+00 2.030934e+00 119 136 155
-1.860185e+00 -1.128310e+00 2.546953e+00 18 18 22
-1.961069e+00 -1.110086e+00 2.820757e+00 38 30 51
-9.062385e+01 -7.127383e+00 3.504268e+00 212 193 152
-3.126279e+02 4.601066e+01 -2.228759e+02 125 114 125
-3.223992e+02 2.033448e+01 -1.240763e+02 167 164 144
-1.272620e+00 -2.802424e+00 2.574946e+00 210 210 179
-1.490153e+00 -2.667747e+00 3.302005e+00 230 218 196
-2.608034e+00 -3.257397e+00 3.754778e+00 14 14 14
-2.925643e+00 -2.115418e+00 4.565163e+00 158 168 178
-2.297846e+00 -1.304254e+00 3.119279e+00 186 186 179
-1.325685e+00 -2.722632e+00 2.632080e+00 193 198 193
-2.802308e+00 -1.577206e+00 4.111526e+00 136 141 138
-2.907432e+00 -2.888528e+00 5.170471e+00 150 80 33
-2.467072e+00 -3.123537e+00 3.573951e+00 15 15 15
-1.252125e+00 -1.923441e+00 2.737673e+00 51 51 49
-1.378093e+00 -2.900927e+00 2.806080e+00 187 180 172
-1.483261e+00 -2.799676e+00 2.982214e+00 198 210 206
-1.432739e+00 -2.294547e+00 3.074604e+00 242 181 170
-1.265684e+00 -2.188165e+00 2.658115e+00 189 119 107
-7.914149e-01 -2.046983e+00 -1.603302e-02 253 255 254
-7.914149e-01 -2.046983e+00 -1.603302e-02 253 255 254
-4.013844e+00 -3.136312e+00 6.165560e+00 128 76 51
-1.087843e+00 -2.736699e+00 2.152291e+00 156 151 145
-1.277295e+00 -2.682621e+00 2.542510e+00 182 189 185
-1.001643e+00 -2.606270e+00 1.988873e+00 72 68 68
-1.000970e+00 -2.606063e+00 1.989573e+00 72 68 68
-1.399502e+00 -2.357414e+00 2.936383e+00 230 216 199
-1.881077e+00 -1.256342e+00 2.565642e+00 40 43 45
-1.234747e+00 -5.219003e-01 9.948174e-01 236 236 225
-1.884069e+00 -1.105001e+00 2.642275e+00 33 29 26
-1.480835e+00 -2.993991e+00 3.012543e+00 225 222 208
-1.547096e+00 -2.861177e+00 3.108283e+00 203 205 202
-1.077907e+00 -2.758851e+00 2.162994e+00 205 201 189
-1.593374e+00 -2.756214e+00 3.292745e+00 228 223 201
-1.258320e+00 -2.699819e+00 2.480715e+00 167 178 172
-1.207491e+00 -2.375531e+00 2.442870e+00 214 204 181
-1.566791e+00 -2.335129e+00 3.355000e+00 229 208 184
-1.569677e+00 -2.333816e+00 3.353127e+00 229 208 184
-1.502594e+00 -2.282042e+00 3.205855e+00 217 202 176
-1.053683e+00 -1.988125e+00 2.314288e+00 89 80 77
-1.992073e+00 -1.214211e+00 2.871743e+00 26 26 27
-1.114278e+01 3.802378e-01 3.182809e+00 56 61 57
-1.406509e+00 -2.956048e+00 2.864883e+00 225 217 207
-1.476468e+00 -2.923256e+00 2.993555e+00 229 229 219
-1.635533e+00 -2.930158e+00 3.318112e+00 207 213 202
-1.271126e+00 -2.872470e+00 2.551968e+00 221 215 201
-1.354903e+00 -2.886761e+00 2.744750e+00 106 97 97
-1.359375e+00 -2.887032e+00 2.743104e+00 106 97 97
-1.232044e+00 -2.845519e+00 2.466544e+00 221 216 204
-1.366858e+00 -2.857711e+00 2.793615e+00 226 225 217
-1.203275e+00 -2.824181e+00 2.399951e+00 213 213 197
-1.325794e+00 -2.839790e+00 2.676814e+00 108 104 100
-1.320618e+00 -2.833369e+00 2.681769e+00 108 104 100
-1.177771e+00 -2.810361e+00 2.347092e+00 212 213 194
-1.223752e+00 -2.818743e+00 2.436104e+00 99 85 90
-1.157537e+00 -2.795057e+00 2.295086e+00 206 204 193
-1.267090e+00 -2.795078e+00 2.573718e+00 221 222 212
-1.378807e+00 -2.782431e+00 2.789528e+00 192 203 196
-1.383059e+00 -2.779716e+00 2.786320e+00 192 203 196
-1.025198e+00 -2.715592e+00 1.994234e+00 211 199 192
-1.012289e+00 -2.714243e+00 1.997897e+00 211 199 192
-1.217459e+00 -2.614101e+00 2.425462e+00 168 176 174
-1.300843e+00 -2.530806e+00 2.615784e+00 218 215 198
-1.494051e+00 -2.518257e+00 3.144235e+00 226 214 194
-1.608149e+00 -2.445783e+00 3.429744e+00 181 108 102
-1.561605e+00 -2.403264e+00 3.325927e+00 177 96 88
-1.547197e+00 -2.387011e+00 3.282198e+00 186 96 88
-1.481071e+00 -2.351388e+00 3.125630e+00 238 211 188
-1.554370e+00 -2.340283e+00 3.318152e+00 181 102 95
-1.553888e+00 -2.342005e+00 3.319438e+00 181 102 95
-1.490496e+00 -2.333942e+00 3.158690e+00 173 92 89
-1.478811e+00 -2.300074e+00 3.142544e+00 231 202 179
-1.478811e+00 -2.300074e+00 3.142544e+00 231 202 179
-1.377217e+00 -2.283884e+00 2.925502e+00 235 204 184
-1.256850e+00 -2.217236e+00 2.614489e+00 167 85 85
-1.346918e+00 -2.228233e+00 2.796478e+00 232 197 179
-1.449191e+00 -2.231368e+00 3.177553e+00 224 223 208
-1.362481e+00 -2.214584e+00 2.826707e+00 177 86 89
-1.435760e+00 -2.214350e+00 3.098309e+00 107 96 92
-7.486101e-01 -1.960941e+00 -5.019093e-01 126 125 115
-1.299192e+00 -2.037055e+00 2.830567e+00 77 70 74
-1.104577e+00 -1.983101e+00 2.359440e+00 120 105 90
-1.953259e+00 -1.163674e+00 2.809386e+00 127 125 119
1.165079e+00 -1.055945e+00 5.619368e+00 60 65 60
-1.527736e+00 -2.980974e+00 3.151647e+00 130 124 118
-1.528678e+00 -2.980783e+00 3.152136e+00 130 124 118
-1.369589e+00 -2.930298e+00 2.765674e+00 225 221 208
-1.516155e+00 -2.954917e+00 3.126849e+00 233 231 223
-1.479586e+00 -2.927654e+00 3.059002e+00 228 231 221
-1.302687e+00 -2.852051e+00 2.618295e+00 104 97 91
-1.270969e+00 -2.845405e+00 2.563448e+00 224 223 213
-1.287439e+00 -2.839700e+00 2.586033e+00 109 104 101
-1.331310e+00 -2.809905e+00 2.702457e+00 228 222 215
-1.192964e+00 -2.779778e+00 2.385339e+00 106 97 95
-1.192964e+00 -2.779778e+00 2.385339e+00 106 97 95
-1.234579e+00 -2.772657e+00 2.492373e+00 223 227 217
-1.112688e+00 -2.740847e+00 2.234944e+00 92 84 84
-1.124198e+00 -2.745349e+00 2.229112e+00 92 84 84
-1.071547e+00 -2.705965e+00 2.135236e+00 214 216 203
-1.321055e+00 -2.730392e+00 2.595296e+00 189 197 193
-1.085110e+00 -2.688054e+00 2.182437e+00 213 215 208
-1.030614e+00 -2.424546e+00 2.054994e+00 98 94 82
-1.584870e+00 -2.429715e+00 3.381982e+00 180 109 100
-1.520638e+00 -2.377412e+00 3.210107e+00 236 206 184
-1.597820e+00 -2.372828e+00 3.426375e+00 173 103 95
-1.597820e+00 -2.372828e+00 3.426375e+00 173 103 95
-1.503906e+00 -2.335029e+00 3.180856e+00 243 210 188
-1.525070e+00 -2.331390e+00 3.222700e+00 242 206 184
-1.566528e+00 -2.327510e+00 3.392124e+00 223 212 183
-1.374929e+00 -2.291246e+00 2.870875e+00 168 94 90
-1.346020e+00 -2.278201e+00 2.817814e+00 159 110 96
-1.346020e+00 -2.278201e+00 2.817814e+00 159 110 96
-1.373796e+00 -2.273620e+00 2.878805e+00 175 101 96
-1.434906e+00 -2.269674e+00 3.043177e+00 169 86 80
-1.483623e+00 -2.240241e+00 3.287365e+00 154 144 128
-1.381266e+00 -2.197500e+00 3.024404e+00 218 210 201
-1.334768e+00 -2.057594e+00 2.982056e+00 210 212 200
-1.176617e+00 -2.000635e+00 2.585125e+00 99 98 95
-1.172463e+00 -2.001420e+00 2.588468e+00 99 98 95
-5.251850e-01 -1.620137e+00 1.052705e-01 56 47 38
-6.753603e-01 -1.583613e+00 -2.548358e-01 70 52 43
-1.950194e+00 -1.045924e+00 2.779488e+00 34 27 25
-1.288341e+00 -4.595675e-01 1.043757e+00 145 145 140
-8.678448e-01 -1.252484e+00 -7.556187e-01 138 80 22
-1.210435e+01 1.541435e-01 3.389459e+00 73 82 91
-1.239937e+00 -2.227710e+00 1.618924e-01 25 27 26
-6.940287e-01 -1.652442e+00 -1.559475e+00 225 222 216
-6.662185e-01 -1.670153e+00 -1.544829e+00 225 222 216
-1.502019e+00 -6.547119e-01 6.380894e-03 189 190 185
-1.148381e+00 -7.796052e-01 8.646598e-01 255 255 255
-2.010394e+00 -2.698386e-02 -2.266116e+00 95 82 82
-1.264768e+00 -2.862932e+00 2.745450e+00 231 232 228
-7.678108e-01 -1.558942e+00 -1.432779e+00 17 17 19
-1.427867e+00 -2.157580e+00 3.135897e+00 249 249 250
-1.264823e+00 3.347040e-01 -1.127994e+00 219 217 205
-1.259691e+01 3.167014e+00 -8.767845e-01 55 92 126
-1.470239e+00 -2.934643e+00 2.875344e+00 220 222 219
-1.459765e+00 -2.955529e+00 3.000197e+00 236 237 235
-1.246408e+00 -2.668243e+00 2.405133e+00 106 120 151
-1.599888e+00 -2.625527e+00 3.341906e+00 233 234 220
-1.610120e+00 -2.286231e+00 3.578040e+00 250 250 245
-2.844570e+00 -1.789093e-01 -3.337742e+00 132 135 136
-4.726350e+00 -1.680027e+00 6.124996e+00 38 40 60
-1.351548e+00 4.918370e-01 -1.188267e+00 30 33 49
-1.170808e+01 -3.164568e-03 3.725815e+00 48 68 100
-1.513639e+00 -3.006196e+00 3.094740e+00 226 227 219
-1.487312e+00 -2.690255e+00 3.040078e+00 240 235 233
-1.170890e+00 -2.036257e+00 2.539254e+00 255 254 255
-3.721387e+00 -2.247580e+00 5.527104e+00 243 240 233
-1.943490e+00 -1.214875e+00 2.794035e+00 38 36 49
-5.256595e+00 -2.320693e+00 -7.376545e+00 106 95 91
-1.324109e+00 -2.593066e+00 2.655970e+00 238 239 229
-1.579725e+00 -2.645935e+00 3.326211e+00 240 241 234
-8.773682e-01 -1.710615e+00 -9.970281e-01 12 12 12
-1.214930e+00 -2.197349e+00 2.521841e+00 201 195 183
-1.584184e+00 -8.797334e-01 1.425951e+00 25 27 26
-1.257870e+00 -2.672632e+00 2.428128e+00 67 79 92
-9.367547e-01 -2.651793e+00 1.822364e+00 76 78 74
-4.104895e+00 -3.762283e+00 5.819253e+00 55 67 61
-1.219121e+00 -2.148331e+00 2.583583e+00 190 183 169
-4.125803e+00 -3.706777e+00 5.726578e+00 119 120 105
-1.213414e+00 -9.238020e-01 1.010380e+00 230 230 229
-1.296157e+00 4.646385e-01 -1.237909e+00 131 135 147
-1.289048e+00 -2.885745e+00 2.612188e+00 217 207 204
-1.531609e+00 -3.033930e+00 3.169557e+00 222 213 205
-1.017242e+00 -2.654920e+00 2.022469e+00 219 214 211
-1.591406e+00 -2.698658e+00 3.318894e+00 90 104 112
-1.593941e+00 -2.699711e+00 3.316821e+00 90 104 112
-1.290890e+00 -2.170195e+00 2.764439e+00 156 107 96
-2.026475e+00 -1.128566e+00 2.921590e+00 34 39 35
-1.185167e+00 -2.809619e+00 2.346328e+00 214 206 204
-1.233117e+00 -2.845423e+00 2.466020e+00 214 209 202
-1.350714e+00 -2.914488e+00 2.721276e+00 213 207 200
-1.111758e+00 -2.707164e+00 2.230524e+00 215 213 211
-1.403237e+00 -2.881483e+00 2.885701e+00 220 219 214
-1.427115e+00 -2.889669e+00 2.910108e+00 224 220 212
-1.546010e+00 -2.949097e+00 3.173460e+00 228 223 220
-1.255145e+00 -2.694430e+00 2.485461e+00 142 158 163
-1.301647e+00 -2.483681e+00 2.663356e+00 192 191 191
-1.592780e+00 -2.433627e+00 3.380687e+00 154 97 93
-1.344397e+00 -2.213970e+00 2.835829e+00 136 80 76
-1.238384e+00 -2.107475e+00 2.571238e+00 185 176 158
-1.373030e+00 -2.190735e+00 2.991039e+00 66 65 55
-1.411380e+00 -2.208936e+00 3.110390e+00 83 80 72
-1.212610e+00 -8.603292e-01 1.033999e+00 198 200 197
-4.373231e+00 -2.453235e+00 6.094775e+00 152 147 135
-1.877173e+00 -1.071787e+00 2.651587e+00 35 36 32
-1.888871e+00 -1.070862e+00 2.682596e+00 181 176 166
-2.016034e+00 -1.160299e+00 2.955749e+00 218 204 194
-1.077147e+01 5.640244e-01 2.734477e+00 52 58 62
-1.030969e+00 -2.729639e+00 2.040407e+00 214 205 202
-1.250069e+00 -2.860438e+00 2.509473e+00 214 206 201
-1.114017e+00 -2.737373e+00 2.200098e+00 99 102 97
-1.572213e+00 -2.783605e+00 3.197173e+00 187 181 177
-1.261229e+00 -2.441293e+00 2.564448e+00 172 174 168
-1.271859e+00 -2.167807e+00 2.680124e+00 139 79 71
-1.198563e+00 -2.081971e+00 2.619486e+00 74 74 75
-1.229942e+00 -2.013044e+00 2.714643e+00 76 77 74
-1.234367e+00 -2.015087e+00 2.714048e+00 76 77 74
-1.407394e+00 -2.110071e+00 3.124222e+00 86 87 82
-1.407394e+00 -2.110071e+00 3.124222e+00 86 87 82
-1.363383e+00 -2.071338e+00 3.041425e+00 217 211 211
-1.363383e+00 -2.071338e+00 3.041425e+00 217 211 211
-2.821140e+00 -1.645277e+00 4.395308e+00 232 229 223
-1.969979e+00 -1.096850e+00 2.864814e+00 238 227 220
-1.954039e+00 -1.059960e+00 2.824980e+00 211 202 204
-2.001048e+00 -1.073414e+00 2.873135e+00 43 47 38
-9.235914e+00 1.343402e+00 4.556542e-02 63 62 60
-3.342868e+02 2.187573e+01 -1.314861e+02 255 255 255
-3.423854e+02 1.828564e+01 -1.170968e+02 254 254 255
-3.427565e+02 1.833499e+01 -1.171693e+02 254 254 255
-3.453211e+02 1.483792e+01 -1.233736e+02 27 28 32
-3.432540e+02 1.480725e+01 -1.198746e+02 253 254 254
-3.401148e+02 1.675248e+01 -1.226959e+02 252 242 234
-3.421712e+02 1.648098e+01 -1.179280e+02 68 67 89
-3.431644e+02 1.711726e+01 -1.200912e+02 91 87 115
-3.381306e+02 1.839257e+01 -1.226168e+02 218 219 211
-3.378227e+02 2.325755e+01 -1.257920e+02 113 127 145
-3.378227e+02 2.325755e+01 -1.257920e+02 113 127 145
-6.212027e+02 5.311542e+01 -2.402546e+02 124 116 97
-3.434770e+02 1.273776e+01 -1.185510e+02 77 69 76
-5.766233e+02 4.795682e+01 -2.883991e+02 57 63 72
-5.702458e+02 4.807478e+01 -2.870861e+02 78 81 94
-3.405712e+02 2.171384e+01 -1.198020e+02 255 253 253
-3.407284e+02 1.387458e+01 -1.196116e+02 247 254 251
-3.414534e+02 1.553196e+01 -1.163881e+02 253 254 252
-3.395735e+02 1.705177e+01 -1.205781e+02 255 251 242
-5.118983e+02 4.238261e+01 -2.424158e+02 193 210 211
-9.310900e+00 1.325631e+00 2.154691e-01 33 43 52
-3.348773e+02 2.650630e+01 -1.330884e+02 101 116 140
-3.453242e+02 1.221759e+01 -1.168457e+02 111 111 73
-5.712250e+02 5.271122e+01 -2.202097e+02 179 169 139
-2.687054e+02 -1.168578e+00 -4.947470e+01 58 55 43
-3.371716e+02 2.772231e+01 -1.309556e+02 254 255 255
-3.373284e+02 2.773903e+01 -1.310041e+02 254 255 255
-5.837705e+02 5.221786e+01 -2.770614e+02 255 255 255
-3.074773e+02 3.474807e+00 -7.055639e+01 86 89 68
-3.488780e+02 1.400592e+01 -1.177887e+02 227 211 155
-3.433110e+02 3.273282e+01 -1.452667e+02 86 86 94
-4.301627e+02 3.123792e+01 -1.423657e+02 203 188 156
-5.818968e+02 6.218300e+01 -2.279742e+02 151 138 112
-3.354088e+02 2.034346e+01 -1.281396e+02 216 213 209
-3.676940e+02 2.742475e+01 -1.058139e+02 92 82 70
-3.423552e+02 1.311308e+01 -1.200370e+02 97 98 92
-3.699225e+02 1.034462e+01 -1.105351e+02 89 79 68
-3.859253e+02 1.223691e+01 -1.189684e+02 195 180 152
-3.851290e+02 1.216266e+01 -1.186946e+02 195 180 152
-3.441183e+02 1.485238e+01 -1.167030e+02 93 93 85
-3.375316e+02 1.918389e+01 -1.231470e+02 255 254 254
-3.671821e+02 2.140258e+01 -1.053567e+02 125 118 91
-3.671499e+02 2.514070e+01 -1.055183e+02 210 208 169
-3.694080e+02 3.014746e+01 -1.049000e+02 244 234 198
-3.704045e+02 2.076015e+01 -1.069899e+02 106 102 67
-4.189174e+02 2.730927e+01 -1.365818e+02 94 92 53
-4.302039e+01 1.557682e+01 -7.386900e+01 237 188 128
-3.314527e+02 2.862495e+01 -1.404286e+02 79 98 131
-1.795710e+02 -1.064493e+01 5.289149e+00 59 56 38
-2.162050e+02 4.214179e+00 -1.417516e+01 209 198 169
-3.329589e+02 2.962791e+01 -1.386715e+02 254 254 253
-1.604516e+00 -2.411057e+00 3.423023e+00 226 169 176
-1.799321e+02 -1.133675e+01 5.786621e+00 171 157 124
-2.160319e+02 -2.461372e+00 -1.636317e+01 25 28 14
-2.169988e+02 4.908489e+00 -1.492683e+01 59 57 44
-2.319560e+02 1.132045e+01 -2.313431e+01 161 146 115
-2.351459e+02 1.536953e+01 -2.045639e+01 192 184 146
-1.494193e+02 -9.042523e+00 -2.291691e+00 59 59 62
-1.616306e+02 -8.943055e+00 1.718898e+01 67 60 32
-2.177424e+02 -3.368613e+00 -1.562559e+01 64 59 44
-2.152240e+02 1.268515e+00 -1.471222e+01 169 165 120
-3.359224e+02 2.910835e+01 -1.388226e+02 77 84 112
-2.333849e+02 7.984442e+00 -2.475254e+01 32 26 13
-1.979654e+02 5.112886e+00 -3.468064e+00 47 45 34
-2.690336e+02 1.399168e+01 -4.573851e+01 181 166 135
-2.348576e+02 1.435967e+01 -2.216839e+01 224 214 206
-2.675649e+00 -1.689094e+00 3.870029e+00 127 135 161
-9.378816e+00 1.226459e+00 2.769058e-01 18 23 28
-1.316495e+02 -1.205266e+01 1.656115e+01 98 102 79
-1.796396e+02 -1.126625e+01 4.638165e+00 156 146 113
-1.620706e+02 -9.370870e+00 1.638487e+01 54 61 39
-2.674040e+02 3.023527e+00 -4.821244e+01 185 183 152
-1.978294e+02 -2.176617e+00 -4.847007e+00 215 208 172
-1.800154e+02 -2.996476e+00 6.400753e+00 79 81 44
-2.334423e+02 2.070545e+00 -2.583251e+01 76 75 32
-1.977419e+02 5.436865e-01 -3.855898e+00 235 223 194
-2.155762e+02 2.368721e+00 -1.419801e+01 69 67 30
-2.340805e+02 4.073897e+00 -2.447658e+01 104 97 66
-1.978401e+02 1.744746e+00 -3.697426e+00 207 198 154
-2.331974e+02 5.645436e+00 -2.446816e+01 229 225 185
-2.153656e+02 4.298262e+00 -1.425856e+01 202 190 159
-2.330871e+02 6.257836e+00 -2.478543e+01 31 31 3
-2.155743e+02 4.397310e+00 -1.324879e+01 73 62 43
-2.156496e+02 4.398633e+00 -1.325570e+01 73 62 43
-2.523080e+02 8.442374e+00 -3.492570e+01 72 62 34
-2.346956e+02 7.518302e+00 -2.461387e+01 165 160 120
-2.153365e+02 6.673786e+00 -1.404612e+01 159 159 132
-2.153365e+02 6.673786e+00 -1.404612e+01 159 159 132
-2.850346e+02 1.550504e+01 -5.553302e+01 103 93 75
-2.683654e+02 1.335628e+01 -4.503634e+01 62 59 37
-2.344165e+02 1.347535e+01 -2.106813e+01 212 203 172
-1.133880e+00 -2.563276e+00 2.235968e+00 254 251 247
-1.319039e+02 -1.157936e+01 1.728318e+01 150 138 138
-1.316669e+02 -1.160026e+01 1.752260e+01 255 253 245
-1.976636e+02 -6.292487e+00 -5.632428e+00 148 139 112
-2.158027e+02 -1.216864e+00 -1.512568e+01 141 138 90
-2.150726e+02 -8.295886e-01 -1.525940e+01 190 186 140
-1.799349e+02 -3.699303e+00 6.507901e+00 82 79 29
-2.332433e+02 1.053558e+00 -2.607954e+01 31 19 2
-2.326556e+02 2.770540e+00 -2.543866e+01 65 59 23
-2.332421e+02 3.779364e+00 -2.535323e+01 68 60 29
-2.329869e+02 4.469086e+00 -2.512231e+01 72 67 42
-2.875227e+02 1.054315e+01 -5.544489e+01 235 229 194
-2.337911e+02 5.576007e+00 -2.411391e+01 118 112 80
-1.976734e+02 3.133567e+00 -4.214266e+00 22 31 1
-2.157413e+02 5.192142e+00 -1.326316e+01 44 37 20
-2.151902e+02 7.086627e+00 -1.417104e+01 202 195 157
-2.158890e+02 8.768663e+00 -1.333621e+01 58 55 28
-1.011337e+00 -2.647693e+00 2.022569e+00 205 206 190
-1.221945e+00 -2.566691e+00 2.424978e+00 202 193 180
-1.608927e+00 -2.361133e+00 3.455081e+00 230 214 183
-1.352612e+00 -3.290439e+00 9.144759e-01 13 13 13
-8.860887e-01 -1.391727e+00 -9.956522e-01 157 82 49
-1.960928e+00 -1.099198e+00 2.440292e+00 190 191 182
-8.410719e-01 -1.828420e+00 -3.899869e-01 69 77 79
-1.230635e+00 -9.344785e-01 1.179293e+00 235 235 238
-2.132492e+00 -9.438234e-01 2.867414e+00 255 255 255
-9.695386e+01 -1.255562e+01 1.879089e+01 111 107 88
-3.864196e+00 -3.186932e+00 5.610030e+00 162 101 45
-1.047021e+02 -1.402182e+01 2.445180e+01 58 60 59
-9.040488e+01 -8.822483e+00 7.407539e+00 111 105 89
-3.461436e+00 -1.134575e-02 -3.472277e+00 168 166 152
-9.949592e+01 -1.311803e+01 2.255135e+01 159 155 130
-4.210849e+00 -2.153816e+00 -8.085919e+00 205 202 195
-9.135758e+01 -1.047508e+01 1.104456e+01 102 101 90
-1.012597e+02 -1.373763e+01 2.527822e+01 181 173 152
-9.701889e+01 -1.192016e+01 1.794898e+01 159 152 134
-9.731029e+01 -1.190058e+01 1.871341e+01 95 97 81
-9.268100e+01 -9.832976e+00 1.215748e+01 139 134 120
-9.268100e+01 -9.832976e+00 1.215748e+01 139 134 120
-6.189158e+01 7.255031e+00 -4.690084e+01 149 158 93
-9.872720e+00 -1.103248e+01 -1.718445e+01 248 247 246
-6.204590e-01 -6.149995e-01 -1.303339e+01 128 112 84
-1.463373e+00 -2.666123e+00 3.011571e+00 238 235 227
-9.739200e-01 -2.245907e+00 1.859602e+00 39 39 46
-4.344459e+01 -1.136007e+01 2.098399e+01 121 120 117
-1.004099e+02 -1.420360e+01 2.508051e+01 56 51 46
-8.993000e+00 6.143689e-01 2.137174e+00 160 186 214
-9.597764e+01 -1.210316e+01 1.723521e+01 69 74 55
-9.017095e+01 -9.745905e+00 8.461493e+00 86 79 76
-7.445695e+00 2.126906e+00 -3.669785e+00 148 190 230
-1.746845e+00 -2.230258e+00 3.741824e+00 80 80 95
-9.964729e-01 -1.699925e+00 1.901937e+00 85 91 101
-1.204523e+00 -4.581418e-01 8.601870e-01 83 80 96
-4.204301e+01 -1.131325e+01 2.105531e+01 254 252 239
-4.394535e+01 -1.157241e+01 2.176177e+01 96 95 94
-7.024991e+01 -1.276004e+01 2.283350e+01 62 69 62
-7.024991e+01 -1.276004e+01 2.283350e+01 62 69 62
-9.883617e+01 -1.270261e+01 2.181999e+01 122 119 102
-9.609705e+01 -8.888789e+00 9.726386e+00 205 194 149
-2.958982e+01 -9.553971e+00 1.531524e+01 122 119 111
-2.958982e+01 -9.553971e+00 1.531524e+01 122 119 111
-1.224778e+00 -8.552488e-01 9.836307e-01 57 55 76
-1.269721e+00 -5.022572e-01 9.345905e-01 251 251 252
-4.430305e+01 -1.121760e+01 2.017775e+01 92 92 93
-1.672394e+01 8.935833e-01 -2.071584e+01 216 216 204
-1.472543e+01 2.026776e+00 -2.472749e+01 175 177 163
-6.700964e+01 -1.184703e+01 2.023491e+01 38 42 45
-6.825498e+01 -1.170483e+01 1.964132e+01 109 112 105
-9.431266e+01 -1.494226e+01 3.027259e+01 39 38 38
-9.031722e+01 -1.064035e+01 1.183114e+01 90 94 90
-1.023509e+02 -1.407341e+01 2.600159e+01 59 52 51
-9.860871e+01 -1.270177e+01 2.090252e+01 126 120 107
-9.001470e+01 -7.556957e+00 4.605239e+00 122 123 91
-1.327192e+01 -8.895784e+00 1.550759e+01 201 171 148
-1.454861e+00 -9.421727e-01 -1.189719e+01 233 234 214
-1.553950e+00 -3.071214e+00 3.124462e+00 35 32 58
-5.802791e+00 -2.546346e+00 -6.711676e+00 70 80 64
-1.337966e+00 -2.783250e+00 2.670540e+00 111 116 135
-8.744799e-01 -1.771422e+00 -1.480115e+00 22 21 29
-7.491071e-01 -1.751532e+00 -1.453633e+00 22 21 29
-1.103642e+00 -2.243661e+00 2.270616e+00 112 110 142
-2.003862e+00 -1.116959e+00 2.908203e+00 57 50 99
-1.736185e+01 6.000678e-01 -1.992722e+01 217 213 207
-1.741714e+01 5.960351e-01 -1.995670e+01 217 213 207
-9.345086e+01 -1.498252e+01 3.074981e+01 40 45 46
-9.969860e+01 -1.444817e+01 2.920044e+01 113 112 85
-9.487471e+01 -9.684813e+00 1.219768e+01 147 133 88
-9.614052e+01 -9.690125e+00 1.249406e+01 204 189 145
1.258840e-01 -1.457646e-01 -1.474803e+01 233 231 226
-1.927786e+00 -9.976580e-01 -1.176981e+01 115 112 108
-1.381395e+00 -2.821547e+00 2.782493e+00 124 127 143
-1.583938e+00 -2.879364e+00 3.179959e+00 200 220 227
-1.416539e+00 -2.571026e+00 2.893250e+00 224 235 243
-1.105061e+00 -1.945501e+00 2.405084e+00 244 243 238
-1.886512e+00 -1.271562e+00 2.596919e+00 87 88 115
-1.271254e+00 -8.495135e-01 1.023334e+00 250 251 254
1.254353e+00 -5.564359e-01 2.375569e+00 122 138 161
-1.653295e+01 1.026834e+00 -2.116379e+01 196 198 178
-4.145133e+01 -9.274276e+00 1.310384e+01 43 40 50
-9.946797e+01 -1.144369e+01 1.913510e+01 224 216 163
-1.146746e+02 -1.455447e+01 2.910626e+01 96 81 56
-5.828350e+01 6.732640e+00 -4.812253e+01 219 215 180
-2.639833e+00 -2.103035e+00 4.617529e+00 152 166 168
-2.961447e+00 -1.762919e+00 4.532339e+00 252 251 249
-2.820515e+00 -2.151287e+00 4.378561e+00 163 168 171
-1.379777e+00 -2.252015e+00 2.978066e+00 214 170 160
-4.373599e-01 -1.334904e+00 1.193032e-01 93 51 38
-7.563444e+00 1.488788e+00 -7.917914e-01 115 133 152
-1.476448e+00 -2.212004e+00 3.246321e+00 80 80 76
-5.413139e-01 -1.573857e+00 1.050798e-01 68 45 33
-1.642818e+00 -2.550691e+00 3.463495e+00 208 199 185
-2.139867e+02 -2.043959e+00 -3.999075e+01 164 168 94
-1.581082e+00 -2.484550e+00 3.398958e+00 211 209 196
-2.786701e+00 -3.062606e+00 5.066663e+00 132 73 39
-2.996263e+00 -2.281928e-02 -3.393519e+00 107 105 90
-1.312619e+00 -7.337147e-01 1.197026e+00 40 41 39
-7.963473e+00 1.923378e+00 -2.399628e+00 29 31 33
-2.209175e+02 -1.578783e+00 -4.482087e+01 53 53 48
-2.328890e+02 -2.319732e+00 -2.747857e+01 85 74 60
-1.450149e+00 -2.633076e+00 2.972669e+00 195 186 173
-1.083380e+00 -2.673140e+00 2.143149e+00 37 46 43
-1.497108e+00 -2.935436e+00 3.092280e+00 46 56 49
-1.490601e+00 -2.933364e+00 3.099119e+00 46 56 49
-1.546562e+00 -2.751600e+00 3.205240e+00 201 190 182
-1.369086e+00 -2.213269e+00 2.927858e+00 166 125 113
-1.070554e+00 -1.979768e+00 2.311708e+00 65 66 61
-1.500793e+00 -2.268005e+00 3.334633e+00 86 92 85
-1.527827e+00 -2.268955e+00 3.312608e+00 86 92 85
-8.989199e+00 6.837202e-01 1.976143e+00 47 53 65
-2.211251e+02 -1.397456e+00 -4.446658e+01 120 111 76
-2.356844e+02 -9.738559e-02 -5.242407e+01 153 139 96
-1.695548e+00 -3.217068e+00 2.116603e+00 123 124 114
-1.387787e+00 -2.941920e+00 2.812753e+00 221 211 205
-1.569266e+00 -3.075553e+00 3.256636e+00 98 93 89
-1.139940e+00 -2.749948e+00 2.289990e+00 88 89 83
-3.777994e+00 -3.531048e+00 5.341766e+00 97 99 94
-1.319289e+00 -2.143195e+00 2.830533e+00 77 79 72
-1.306757e+00 -2.145845e+00 2.865978e+00 216 209 206
-1.561595e+00 -2.293810e+00 3.460741e+00 207 197 190
-1.124467e+01 3.140018e-01 3.118046e+00 37 39 38
-2.137103e+02 -2.395136e+00 -4.087142e+01 74 65 41
-2.140844e+02 -2.238391e+00 -4.116785e+01 208 152 114
-2.140844e+02 -2.238391e+00 -4.116785e+01 208 152 114
-2.141023e+02 -2.233804e+00 -4.082496e+01 188 137 100
-2.149912e+02 -2.057756e+00 -4.146252e+01 59 57 29
-2.195007e+02 -8.523665e-01 -3.102453e+01 173 157 131
-2.326892e+02 -2.846242e+00 -2.637058e+01 76 61 33
-2.198284e+02 -3.068276e-01 -3.046330e+01 223 160 132
-1.366250e+00 -2.930404e+00 2.766777e+00 221 219 208
-1.480216e+00 -2.927515e+00 3.056861e+00 228 224 219
-1.527310e+00 -2.723939e+00 3.131078e+00 218 211 210
-8.948283e-01 -1.591234e+00 -3.796517e-01 66 51 38
-1.379452e+00 -2.176750e+00 2.960578e+00 215 203 195
-1.144354e+00 -1.980383e+00 2.492757e+00 101 99 89
-2.800454e+00 -1.967533e+00 4.422618e+00 125 127 113
-7.664788e+00 1.587465e+00 -9.980322e-01 109 120 130
-8.999897e+00 7.153762e-01 1.945930e+00 115 126 133
-1.424930e+00 -2.926305e+00 2.890392e+00 215 215 207
-1.491021e+00 -2.802296e+00 2.980337e+00 177 191 193
-1.538881e+00 -2.861299e+00 3.112472e+00 176 189 194
-1.117308e+00 -2.742037e+00 2.233163e+00 90 90 88
-9.965282e-01 -1.129421e+00 -8.421070e-01 126 128 116
-9.236878e-01 -1.104055e+00 -1.252611e+00 152 86 14
-1.307429e+00 1.914125e-01 -9.988965e-01 242 239 233
-1.642660e+00 -2.683342e+00 3.391467e+00 236 235 229
-1.280298e+00 -6.021477e-01 7.910152e-01 252 252 252
-1.269798e+00 3.371204e-01 -1.111456e+00 221 223 220
-1.461375e+00 -2.952734e+00 2.998616e+00 245 246 241
-1.991326e+00 -1.244236e+00 2.902486e+00 45 54 77
-1.149083e+00 -1.193038e+00 -1.132678e+00 195 128 34
-1.046953e+00 -1.776102e-01 -1.436087e+00 209 202 182
-3.716325e+00 -2.242656e+00 5.535613e+00 241 240 234
-1.047371e+01 6.785885e-01 2.499431e+00 73 84 84
-1.639556e+00 -2.840431e+00 3.220743e+00 92 108 120
-1.991693e+00 -1.213798e+00 3.021811e+00 225 229 209
-2.061318e+00 -1.080527e+00 2.998185e+00 70 69 101
-7.274182e+00 -4.194302e+00 5.248520e+00 58 58 61
-3.318894e+02 2.824762e+01 -1.388426e+02 254 254 253
-7.935173e+00 -4.912924e+00 -4.153021e+00 99 92 80
-3.445768e+02 1.820161e+01 -1.177132e+02 254 255 254
-3.311810e+02 2.546463e+01 -1.364941e+02 253 255 253
-2.844045e+02 7.983761e-02 -5.769013e+01 93 79 62
-3.192924e+02 4.457740e+00 -8.031238e+01 66 60 47
-3.195784e+02 4.558548e+00 -7.826156e+01 109 102 70
-3.440538e+02 1.483682e+01 -1.166814e+02 93 93 85
-2.672804e+02 4.776469e+00 -4.782767e+01 186 182 148
-2.202932e+02 -1.364821e+00 -4.514540e+01 72 68 61
-3.039148e+02 2.855667e+00 -6.890963e+01 190 189 150
-6.094066e+02 5.396899e+01 -2.377524e+02 105 102 62
-3.372214e+02 2.638000e+01 -1.300454e+02 83 100 125
-2.343599e+02 1.456791e+01 -2.117145e+01 36 36 40
-2.341056e+02 1.457697e+01 -2.113215e+01 36 36 40
-7.570953e-01 -8.245597e-01 2.075309e+00 19 22 33
-3.710357e+02 3.729140e+01 -1.059881e+02 210 203 195
-3.722515e+02 3.992000e+01 -1.046516e+02 86 72 71
-3.361221e+02 2.503330e+01 -1.325354e+02 78 92 136
-2.866240e+02 1.135863e+01 -5.502971e+01 238 228 195
-3.719771e+02 2.240164e+01 -1.074361e+02 218 212 186
-4.070719e+02 2.779545e+01 -1.268093e+02 189 177 139
-4.220759e+02 3.148517e+01 -1.381011e+02 102 95 77
-2.155445e+02 6.739967e+00 -1.355730e+01 27 30 18
-4.299948e+02 3.840357e+01 -1.403856e+02 215 191 160
-3.032154e+02 1.667046e+00 -6.971972e+01 174 165 142
-4.057712e+02 2.173066e+01 -1.289016e+02 35 36 14
-3.377289e+02 2.467637e+01 -1.312000e+02 124 126 172
-3.360182e+02 2.457375e+01 -1.304967e+02 124 126 172
-2.863243e+02 1.108576e+01 -5.567625e+01 163 147 121
-2.862583e+02 1.232880e+01 -5.540663e+01 182 171 142
-1.319759e+02 -1.157435e+01 1.729552e+01 150 138 138
-4.052615e+02 2.923784e+01 -1.269989e+02 71 59 38
-3.713518e+02 4.165390e+01 -1.047720e+02 135 129 127
-3.713518e+02 4.165390e+01 -1.047720e+02 135 129 127
-3.271963e+02 2.463784e+01 -1.394722e+02 255 254 252
-3.265910e+02 2.461563e+01 -1.392554e+02 255 254 252
-1.435245e+02 -1.458258e+01 2.546463e+01 49 49 42
-1.450861e+02 -1.363069e+01 2.528611e+01 195 196 182
-3.208488e+02 1.721062e+01 -1.352288e+02 154 155 157
-3.459720e+02 2.569320e+01 -1.265230e+02 244 243 239
-3.712520e+02 3.627352e+01 -1.044671e+02 140 136 123
-3.712520e+02 3.627352e+01 -1.044671e+02 140 136 123
-1.614773e+02 -1.325557e+01 1.576933e+01 45 43 34
-1.424904e+02 -1.315886e+01 2.705783e+01 52 51 39
-1.428407e+02 -1.175001e+01 2.754222e+01 71 71 54
-1.428407e+02 -1.175001e+01 2.754222e+01 71 71 54
-1.432555e+02 -8.591990e+00 2.771171e+01 177 171 136
-1.429515e+02 -4.345681e+00 2.826177e+01 224 217 176
-1.430253e+02 -4.343998e+00 2.888299e+01 34 35 25
-3.776250e+02 4.087433e+01 -1.078748e+02 249 245 241
-9.374686e+01 -1.527348e+01 3.013148e+01 33 39 28
-9.605269e+01 -1.118884e+01 1.653995e+01 78 81 74
-1.425185e+02 -1.490782e+01 2.702677e+01 153 146 122
-1.601013e+02 -1.342926e+01 1.513045e+01 142 139 98
-1.431232e+02 -1.352541e+01 2.579583e+01 53 52 58
-1.429108e+02 -9.308964e+00 2.776888e+01 205 200 158
-2.165134e+02 -3.014225e+00 -1.592210e+01 214 210 180
-1.429865e+02 -5.912600e+00 2.899515e+01 198 193 154
-1.432042e+02 -5.931217e+00 2.902051e+01 198 193 154
-1.440574e+02 -3.391352e+00 2.785902e+01 44 50 35
-2.324705e+02 6.430402e+00 -2.410591e+01 185 177 138
-2.336971e+02 6.712165e+00 -2.511255e+01 36 36 23
-2.357427e+02 1.647668e+01 -2.173975e+01 237 239 237
-1.039717e+01 2.549732e+00 -2.309378e+01 210 213 207
-1.610630e+02 -1.345675e+01 1.635093e+01 169 165 136
-1.425896e+02 -1.234187e+01 2.681443e+01 115 110 80
-1.433361e+02 -7.010507e+00 2.892434e+01 109 107 81
-1.429612e+02 -4.904694e+00 2.867865e+01 49 46 35
-1.970542e+02 5.744739e-01 -4.426333e+00 77 84 46
-3.402906e+02 2.137884e+01 -1.211178e+02 89 98 124
-1.426493e+02 -3.035813e+00 2.811935e+01 213 206 165
-9.921651e+01 -1.421559e+01 2.819078e+01 146 147 101
-1.315764e+02 -1.236950e+01 1.670221e+01 252 251 243
-1.424273e+02 -1.411294e+01 2.640004e+01 52 53 42
-1.421181e+02 -1.412031e+01 2.767523e+01 43 39 21
-1.431407e+02 -1.198441e+01 2.697393e+01 44 41 29
-1.434892e+02 -1.200678e+01 2.700949e+01 44 41 29
-1.430135e+02 -1.091965e+01 2.711001e+01 192 189 156
-1.430541e+02 -1.028589e+01 2.773761e+01 203 193 169
-1.799614e+02 -2.743029e+00 6.037441e+00 174 174 145
-3.336627e+02 2.251475e+01 -1.387623e+02 254 254 227
-2.689889e+02 7.853871e+00 -4.784925e+01 218 214 168
-1.615773e+02 -2.565002e+00 1.794946e+01 83 89 57
-2.331464e+02 9.494527e+00 -2.266340e+01 204 196 141
-1.599470e+02 -1.361687e+01 1.564747e+01 166 162 115
-1.792452e+02 -1.089496e+01 5.530052e+00 78 71 52
-3.506927e+02 2.160037e+01 -1.548134e+02 84 96 115
-2.332766e+02 7.848492e-01 -2.567356e+01 233 220 193
-3.988138e+02 2.855020e+01 -1.774912e+02 105 109 108
-3.341863e+02 2.134358e+01 -1.325283e+02 214 213 209
-3.341863e+02 2.134358e+01 -1.325283e+02 214 213 209
-1.798405e+02 -2.047458e+00 6.137275e+00 217 214 179
-1.616122e+02 -3.099076e+00 1.786742e+01 93 97 56
-3.954841e+02 3.107184e+01 -1.744402e+02 61 57 78
-3.330057e+02 2.622243e+01 -1.387826e+02 254 254 251
-2.531998e+02 6.528103e+00 -3.576401e+01 199 187 134
-1.427183e+02 -3.521043e+00 2.937907e+01 79 74 55
-2.156428e+02 8.748653e+00 -1.332693e+01 73 69 33
-9.191386e-01 -2.432139e+00 1.770028e+00 14 14 14
-2.681124e+02 -8.702241e-01 -4.805546e+01 127 112 83
-2.854990e+02 -2.997645e-01 -5.822941e+01 53 53 40
-2.502477e+02 -3.498860e+00 -3.901875e+01 141 134 87
-2.687265e+02 -1.659113e+00 -4.979912e+01 124 106 74
-3.058241e+02 1.603993e+00 -7.104741e+01 62 65 41
-2.858236e+02 -1.458801e-01 -5.930961e+01 54 51 38
-2.863140e+02 -3.729703e-01 -5.791150e+01 155 138 105
-2.687085e+02 9.754187e-01 -4.879883e+01 113 101 70
-2.859426e+02 -4.641992e-02 -5.881520e+01 150 130 109
-2.859426e+02 -4.641992e-02 -5.881520e+01 150 130 109
-2.684441e+02 7.760678e-02 -4.773130e+01 201 177 146
-3.067678e+02 3.749326e+00 -6.912160e+01 149 133 98
-2.683329e+02 1.069412e+00 -4.779758e+01 58 61 40
-3.056961e+02 2.344686e+00 -7.009553e+01 138 127 92
-2.865065e+02 8.641599e-01 -5.891233e+01 132 125 100
-2.860909e+02 9.310387e-01 -5.840986e+01 65 69 51
-2.862764e+02 1.151368e+00 -5.899744e+01 62 61 43
-2.686403e+02 -2.518094e-01 -4.867526e+01 62 64 42
-2.860151e+02 1.302116e+00 -5.824769e+01 76 78 63
-2.862389e+02 1.774160e+00 -5.858020e+01 172 156 128
-2.862389e+02 1.774160e+00 -5.858020e+01 172 156 128
-2.690979e+02 3.259777e-01 -4.861663e+01 57 57 31
-2.868135e+02 3.114094e+00 -5.874415e+01 140 133 105
-2.684000e+02 1.348970e+00 -4.770606e+01 66 67 42
-3.073983e+02 2.042159e+00 -7.135056e+01 129 129 73
-2.864700e+02 9.043433e-01 -5.936556e+01 114 106 86
-2.864765e+02 1.702638e+00 -5.792164e+01 167 155 122
-2.873591e+02 1.669182e+00 -5.766373e+01 152 141 108
-2.686987e+02 6.258844e-01 -4.801145e+01 63 66 36
-2.685804e+02 7.042919e-01 -4.776035e+01 127 115 92
-3.054724e+02 2.066394e+00 -6.942226e+01 84 70 40
-2.862822e+02 5.037056e-01 -5.862605e+01 115 102 85
-2.862822e+02 5.037056e-01 -5.862605e+01 115 102 85
-2.684260e+02 4.488268e-01 -4.817620e+01 114 100 71
2.160791e-01 -2.472877e-02 4.524987e-01 248 249 246
-1.435870e+00 -2.404977e+00 -2.586597e+00 10 10 10
-3.967268e+00 -2.855871e+00 5.925788e+00 217 231 240
1.281553e+01 -1.470385e+00 -7.267735e+00 125 129 129
-3.503528e+00 -3.802226e+00 4.986446e+00 220 231 233
-3.159854e+00 -2.199463e+00 4.751036e+00 203 220 231
-1.966314e+00 -1.101953e+00 2.442792e+00 233 236 220
-1.600692e+00 -2.609678e+00 3.928680e+00 199 209 209
-1.219849e+00 -3.402879e-01 1.011164e+00 254 254 254
-9.080281e+01 -1.558751e+01 3.222323e+01 45 52 51
-6.061830e-01 -4.745279e-01 -1.319088e+01 221 223 222
-6.815258e-01 -4.867844e-01 -1.322838e+01 221 223 222
-7.088982e-01 -5.524845e-01 -1.285232e+01 241 240 243
-7.016439e-01 -1.646487e+00 -1.557675e+00 248 248 246
-3.489752e+00 -3.623937e+00 5.177053e+00 200 212 215
-1.026087e+02 -1.403356e+01 2.629804e+01 63 66 53
-1.097829e+02 -1.434748e+01 2.784526e+01 198 188 141
1.672922e+01 -2.259763e+00 -3.886736e+00 48 41 44
1.672922e+01 -2.259763e+00 -3.886736e+00 48 41 44
-1.178175e+00 -2.377273e+00 2.368322e+00 247 247 246
-1.315731e+00 -1.961980e+00 2.861880e+00 128 131 145
-4.094575e+01 -1.011096e+01 1.686081e+01 121 117 114
-4.094575e+01 -1.011096e+01 1.686081e+01 121 117 114
-4.371562e+01 -1.126026e+01 2.057579e+01 47 54 60
-6.753484e+01 -1.339839e+01 2.585361e+01 72 82 89
-6.742980e+01 -1.193920e+01 2.121653e+01 75 80 83
-9.472692e+01 -1.510776e+01 2.869085e+01 103 111 88
-9.540013e+01 -1.090114e+01 1.837478e+01 217 206 151
1.614944e+01 -5.110259e-01 -6.290997e+00 162 160 171
1.305006e+01 -1.480752e+00 -7.438065e+00 246 247 247
-1.626813e+00 -2.287293e+00 3.581035e+00 250 253 251
-9.893453e-01 -1.705645e+00 1.896080e+00 76 83 98
-1.784288e+01 2.827154e-01 -1.919210e+01 62 78 91
4.289335e+00 9.040174e-02 2.529522e+00 39 46 69
-1.908807e+00 -1.191615e+00 2.683783e+00 47 51 71
-4.204336e+01 -1.032997e+01 1.696807e+01 126 123 121
-8.396277e+01 -1.628249e+01 3.669383e+01 43 48 51
1.058403e+01 -2.748685e+00 -3.494248e+00 249 249 247
1.333474e-01 -1.394030e-02 -1.490179e+01 240 239 235
-3.771851e-01 -2.332544e-01 -1.422117e+01 226 226 221
-8.341082e-01 -2.288113e+00 1.738333e+00 78 84 72
-1.280482e+00 -1.081537e+00 8.950872e-01 184 203 216
-1.721632e+01 7.155855e-01 -2.031764e+01 228 228 218
-4.199007e+01 -1.129946e+01 2.104126e+01 255 255 253
-5.884659e+01 -1.163814e+01 2.015579e+01 121 123 116
-8.011959e+01 -1.698235e+01 3.816644e+01 33 37 36
-9.003335e+01 -1.573463e+01 3.225238e+01 34 42 32
-9.320882e+01 -1.541089e+01 3.050945e+01 35 36 34
-9.732357e+01 -1.101913e+01 1.667914e+01 198 188 138
-9.916733e+01 -1.208953e+01 2.052312e+01 131 138 96
-9.916733e+01 -1.208953e+01 2.052312e+01 131 138 96
-1.133388e+02 -1.487698e+01 2.929864e+01 240 228 184
-1.136528e+02 -1.490901e+01 2.935859e+01 240 228 184
1.698424e+01 -2.372770e+00 -3.476431e+00 229 186 140
1.054048e+01 -2.719383e+00 -3.468267e+00 97 94 59
-1.197859e+00 -2.622172e+00 2.316104e+00 225 237 244
-8.920578e-01 -2.126710e+00 1.849996e+00 141 149 150
-1.842358e+01 1.473662e-01 -1.841743e+01 162 178 162
-1.942823e+00 -1.069851e+00 2.742146e+00 60 57 85
-2.037691e+00 -1.141820e+00 2.974518e+00 226 225 222
-4.680608e+00 -1.672731e+00 6.127695e+00 35 44 67
-4.710664e+00 -1.678960e+00 6.129659e+00 35 44 67
-4.276692e+01 -1.149030e+01 2.142443e+01 252 252 250
-4.276692e+01 -1.149030e+01 2.142443e+01 252 252 250
-7.989176e+01 -1.687594e+01 3.780412e+01 34 34 28
-6.263073e+01 5.350238e+00 -4.378530e+01 181 171 150
-8.957687e+01 -1.532515e+01 3.050722e+01 108 114 87
-9.524046e+01 -1.580691e+01 3.020186e+01 113 124 96
-8.818205e+01 -1.562025e+01 3.379486e+01 36 46 34
-9.956340e+01 -1.250423e+01 2.112237e+01 220 216 197
-9.928923e+01 -1.166241e+01 1.967925e+01 229 214 164
-1.141295e+02 -1.434676e+01 2.854170e+01 66 58 39
-1.789625e+01 4.028309e-01 -1.923517e+01 160 171 118
-3.029697e+00 -4.648310e-02 -3.410346e+00 159 167 145
-8.032002e+01 -1.685084e+01 3.758862e+01 31 33 24
-8.487077e+01 -1.614509e+01 3.376284e+01 49 59 37
-8.487077e+01 -1.614509e+01 3.376284e+01 49 59 37
-9.047291e+01 -1.539276e+01 3.106534e+01 41 40 37
-8.892022e+01 -1.245722e+01 1.926812e+01 125 132 98
-9.186536e+01 -1.536253e+01 3.146477e+01 98 106 107
-9.623422e+01 -1.230669e+01 1.757535e+01 71 76 79
-9.881658e+01 -1.453182e+01 2.648278e+01 45 45 45
-9.915711e+01 -1.420985e+01 2.865629e+01 134 131 93
-9.815453e+00 2.922405e+00 -3.668975e+00 59 78 93
-1.661841e+00 -4.384586e-01 -2.196541e+00 165 160 131
-4.737697e+00 -8.995757e-01 -4.344467e+00 111 107 97
-1.155757e+01 4.241077e+00 -3.786912e+00 55 65 84
-1.178508e+01 8.444504e-02 4.001229e+00 75 74 71
-1.102253e+01 3.844122e+00 -3.585520e+00 110 122 121
-1.102253e+01 3.844122e+00 -3.585520e+00 110 122 121
-6.682433e+00 -8.080675e-02 -5.276840e+00 83 84 78
-4.497980e+00 -2.329207e+00 -4.724757e+00 75 71 62
-4.420609e+00 -1.023886e+00 -4.186317e+00 119 124 128
-3.091477e+00 7.424795e-02 -3.341050e+00 167 164 136
-1.197790e+00 -1.183836e-01 -8.181947e-01 158 151 139
-2.014671e+00 4.601531e-01 -2.011003e+00 105 83 61
-8.323086e+00 2.477990e+00 -4.268719e+00 191 200 204
-4.199415e+00 -2.013700e+00 -4.365007e+00 150 159 167
-3.838468e+00 -1.154584e+00 -4.065760e+00 44 45 36
-8.724804e+00 2.518074e+00 -4.697618e+00 188 204 213
-9.460663e+00 3.002907e+00 -6.063981e+00 68 69 62
-9.460663e+00 3.002907e+00 -6.063981e+00 68 69 62
-5.388873e+00 -1.901021e+00 -4.955590e+00 109 106 91
-1.116985e+00 -2.527006e+00 2.511824e+00 201 194 177
-1.423187e+00 -9.259233e-02 -1.620333e+00 198 179 143
-7.596689e+00 1.881370e+00 -2.498979e+00 142 158 173
-3.089264e+00 -1.612942e+00 -9.880366e+00 213 206 190
-3.089264e+00 -1.612942e+00 -9.880366e+00 213 206 190
-6.516020e+00 -2.526359e+00 -8.447519e+00 58 57 51
-5.136428e+00 -2.172157e+00 -4.929774e+00 99 95 83
-9.727668e-01 -2.705855e+00 2.165494e+00 226 223 206
-1.089057e+00 -2.628289e+00 2.169131e+00 104 104 96
-8.031854e-01 -2.039289e+00 5.841373e-01 98 97 92
-1.245344e+00 -9.750826e-01 1.006537e+00 253 255 254
-1.208029e+01 4.505498e+00 -3.990389e+00 138 160 183
-4.547834e+00 -2.187411e+00 -4.532746e+00 16 18 15
-4.140612e+00 -9.110235e-01 -4.003028e+00 14 15 15
-2.025288e+01 2.502399e+00 -3.111276e+00 159 175 174
-9.940246e-01 -2.175360e+00 1.615414e+00 71 71 66
-6.739399e-01 -1.385843e+00 -4.722002e-02 193 110 17
-5.043261e+00 -4.612993e-01 -4.307176e+00 129 120 110
-7.875871e+00 1.922558e+00 -2.386178e+00 36 38 37
-1.468771e+01 4.868481e+00 -5.400245e+00 43 52 71
-4.489250e+00 -1.720599e+00 -4.555449e+00 40 37 35
-4.489250e+00 -1.720599e+00 -4.555449e+00 40 37 35
-1.640306e+00 -2.831118e+00 3.379799e+00 216 203 173
-4.719201e+00 -1.591463e+00 -4.619770e+00 89 89 79
-4.307086e+00 -1.399966e+00 -4.368291e+00 33 34 33
-4.512752e+00 -1.075912e+00 -4.386670e+00 41 40 36
-4.512752e+00 -1.075912e+00 -4.386670e+00 41 40 36
-4.598623e+00 -9.506628e-01 -4.369998e+00 27 25 26
-4.598623e+00 -9.506628e-01 -4.369998e+00 27 25 26
-3.972045e+00 -1.934298e+00 -4.240869e+00 23 23 23
-6.107881e-01 -1.539043e+00 -6.025896e-02 253 185 41
-3.401688e+02 2.540358e+01 -1.244845e+02 247 248 243
-3.401688e+02 2.540358e+01 -1.244845e+02 247 248 243
-2.204766e+02 -4.056038e+00 -3.173567e+01 255 236 199
-2.306899e+02 -5.897586e+00 -3.050241e+01 189 191 127
-2.671827e+02 -1.169197e+00 -4.914371e+01 58 55 43
-1.079956e+02 2.115306e+01 -1.079861e+02 196 181 162
-1.126716e+02 2.187381e+01 -1.114869e+02 188 178 158
-2.674170e+02 8.870814e+00 -4.725508e+01 201 198 143
-2.156437e+02 -1.867300e+00 -4.232792e+01 63 64 55
-1.374875e+02 2.423804e+01 -1.245538e+02 193 183 150
-2.845728e+02 6.427832e-01 -5.802289e+01 213 199 175
-1.235020e+01 3.299796e-01 3.057104e+00 96 130 163
-8.885689e+00 -1.055425e+01 -2.656786e+01 127 123 129
-2.123722e+02 3.331896e+01 -1.678597e+02 173 165 111
-2.326946e+02 -5.106177e+00 -2.771243e+01 63 55 46
-1.031672e+02 -5.725162e+00 -3.665992e+00 214 197 145
-1.582590e+02 -8.187467e+00 -5.688466e+00 154 164 94
-2.162484e+02 -6.503422e+00 -1.717884e+01 60 61 49
-2.326017e+02 -3.632167e+00 -2.644071e+01 63 52 38
-2.849176e+02 1.607863e+00 -5.815705e+01 208 203 172
-3.722937e+02 2.290651e+01 -1.066068e+02 124 112 79
-2.688038e+02 1.203145e+01 -4.469949e+01 216 210 159
-1.935749e+01 -3.274893e-01 -1.670495e+01 162 173 169
-7.646691e+00 1.539106e+00 -8.548597e-01 136 162 189
-2.153403e+02 -4.834168e+00 -1.616324e+01 189 188 165
-2.329866e+02 -2.265446e+00 -2.698430e+01 35 30 22
