ply
format ascii 1.0
element vertex 919
property float x
property float y
property float z
property uchar diffuse_red
property uchar diffuse_green
property uchar diffuse_blue
end_header
-5.706092e+01 2.839774e+01 -9.426197e+01 219 196 154
-5.732158e+01 2.861083e+01 -9.383090e+01 227 207 154
-4.694127e+01 3.417471e+01 -1.108841e+02 251 244 236
-5.290890e+01 3.290738e+01 -1.014598e+02 235 215 155
-2.123045e+01 2.502808e+01 -7.044888e+01 208 205 189
-4.943188e+01 3.561261e+01 -1.058712e+02 144 131 112
-5.041682e+01 3.534711e+01 -1.047902e+02 224 235 227
-4.945282e+01 3.610847e+01 -1.056710e+02 140 127 108
-5.168356e+01 3.535421e+01 -1.022299e+02 229 215 180
-4.977858e+01 3.642997e+01 -1.050087e+02 238 228 203
-4.969700e+01 3.744907e+01 -1.054998e+02 238 220 196
-5.145054e+01 3.691506e+01 -1.027129e+02 156 150 145
-4.968755e+01 3.803315e+01 -1.052069e+02 239 220 200
-2.172615e+01 2.800694e+01 -7.001454e+01 94 90 81
4.180708e+01 2.238059e+01 -5.882652e+01 229 230 216
4.075155e+01 2.368644e+01 -6.018655e+01 144 151 151
4.303651e+01 1.904931e+01 -5.499190e+01 73 78 53
4.076498e+01 2.531437e+01 -5.954570e+01 147 152 150
4.188927e+01 2.683079e+01 -5.879361e+01 229 227 212
-8.868165e+00 -3.388808e+00 5.559881e+00 11 13 10
-2.714010e+01 3.010047e+01 -1.011403e+02 149 152 145
-2.085517e+01 2.804061e+01 -7.169018e+01 246 239 217
-7.809939e+00 -3.851865e+00 5.960989e+00 105 107 99
-2.568159e+01 1.747984e+01 -7.070967e+01 226 214 159
-2.599258e+01 1.988729e+01 -7.412624e+01 183 175 127
5.144218e+01 2.256030e+01 -5.355759e+01 167 168 162
3.439812e+00 3.139867e+01 -8.126885e+01 242 238 225
3.439812e+00 3.139867e+01 -8.126885e+01 242 238 225
3.529658e+01 7.922949e+00 -3.063285e+01 102 94 69
-2.702259e+01 1.979494e+01 -7.227329e+01 98 112 54
1.139702e+01 1.749344e+01 -5.331449e+01 251 249 236
1.211853e+01 1.788748e+01 -5.256490e+01 255 250 229
-2.768199e+01 3.163052e+01 -1.002690e+02 156 157 152
4.334262e+01 1.813554e+01 -5.347932e+01 56 60 40
3.129956e+01 2.429619e+01 -6.400815e+01 172 170 171
-2.193378e+01 2.808605e+01 -7.047107e+01 109 107 108
-3.355740e+01 4.041496e+01 -1.021276e+02 181 178 169
-2.637576e+01 1.784229e+01 -7.179286e+01 129 114 75
-2.736161e+01 1.760023e+01 -7.002100e+01 186 200 129
-2.272155e+01 1.888771e+01 -7.142206e+01 153 147 62
-2.060772e+01 2.008404e+01 -7.121109e+01 245 231 205
-1.927038e+01 2.013623e+01 -7.123380e+01 247 234 213
3.813632e+01 1.228586e+01 -3.550292e+01 205 207 119
4.225955e+01 1.754990e+01 -5.255566e+01 172 182 92
5.112898e+01 1.799101e+01 -5.297646e+01 134 142 83
4.281716e+01 1.929718e+01 -5.804314e+01 86 98 53
4.373230e+01 1.813401e+01 -5.315364e+01 92 94 54
4.280467e+01 1.833636e+01 -5.389174e+01 50 50 36
4.169491e+01 1.709535e+01 -4.724206e+01 233 230 213
4.315915e+01 1.929621e+01 -5.314197e+01 127 138 115
5.096877e+01 2.188872e+01 -5.415777e+01 173 172 171
-2.176902e+01 2.767341e+01 -7.110771e+01 114 102 94
-1.693378e+01 -1.201910e-01 2.917346e+00 148 159 183
-2.759984e+01 1.695172e+01 -6.994025e+01 211 223 136
-2.599096e+01 1.791233e+01 -7.125495e+01 213 214 139
-2.584197e+01 1.896514e+01 -7.278522e+01 224 207 154
3.192403e+01 8.838003e+00 -3.356660e+01 105 101 55
2.946918e+01 9.373153e+00 -3.475827e+01 204 204 114
3.580863e+01 9.409266e+00 -3.329504e+01 178 188 92
-2.002891e+01 2.047081e+01 -7.105955e+01 252 251 232
-2.002161e+01 2.047608e+01 -7.115551e+01 252 251 232
3.784748e+01 1.080847e+01 -3.440802e+01 191 187 109
-2.279162e+01 2.710837e+01 -9.746033e+01 246 244 231
-2.504544e+01 2.978036e+01 -9.993665e+01 175 177 163
-2.090259e+01 2.269035e+01 -7.088072e+01 203 186 167
3.137603e+01 2.125177e+01 -6.640019e+01 250 248 238
-3.538580e+01 3.877231e+01 -1.040635e+02 181 178 169
-2.201373e+01 2.998168e+01 -6.963397e+01 222 209 166
-2.957309e+01 1.605665e+01 -6.985542e+01 45 41 37
-2.722934e+01 1.635679e+01 -7.006455e+01 251 211 160
-2.520642e+01 1.723189e+01 -7.095535e+01 148 146 81
-2.978785e+01 1.761883e+01 -7.056570e+01 115 118 68
-2.951489e+01 1.800029e+01 -7.088850e+01 201 211 120
-2.530470e+01 1.846084e+01 -7.183098e+01 176 179 95
-2.709273e+01 1.941641e+01 -7.265150e+01 202 229 110
3.505688e+01 9.379287e+00 -3.304791e+01 151 126 69
3.505688e+01 9.379287e+00 -3.304791e+01 151 126 69
-2.249735e+01 2.003121e+01 -7.331077e+01 230 227 153
-2.204816e+01 2.004287e+01 -7.318553e+01 204 207 123
2.574993e+01 1.218960e+01 -4.028136e+01 159 150 94
-1.962476e+01 2.280057e+01 -7.131174e+01 248 246 225
4.249147e+01 1.875643e+01 -5.451923e+01 53 53 39
4.284317e+01 1.947978e+01 -5.691860e+01 237 235 215
-2.130008e+01 2.885347e+01 -7.050159e+01 255 254 253
-2.144064e+01 2.999353e+01 -7.033499e+01 255 253 231
-1.679833e+01 -2.403263e-01 2.937468e+00 233 248 250
-2.878934e+01 1.693948e+01 -6.880632e+01 96 116 49
-2.696787e+01 1.802045e+01 -7.142904e+01 79 99 22
-2.751226e+01 1.844509e+01 -7.070190e+01 205 225 146
-2.896191e+01 1.874328e+01 -7.096334e+01 190 213 126
-2.740276e+01 1.907954e+01 -7.143919e+01 231 253 184
3.778547e+01 9.459933e+00 -3.171170e+01 125 120 52
-2.100439e+01 1.992535e+01 -7.137351e+01 91 89 64
-2.098347e+01 2.000328e+01 -7.168043e+01 91 89 64
-1.985344e+01 2.003158e+01 -7.100909e+01 232 227 192
-2.090484e+01 2.058179e+01 -7.131012e+01 91 89 86
3.718687e+01 1.041054e+01 -3.323746e+01 210 209 108
3.718687e+01 1.041054e+01 -3.323746e+01 210 209 108
-2.249167e+01 2.685676e+01 -9.741338e+01 201 204 169
-2.249167e+01 2.685676e+01 -9.741338e+01 201 204 169
3.666776e+01 1.053730e+01 -3.363505e+01 109 96 43
-2.088538e+01 2.106508e+01 -7.135788e+01 87 80 70
-2.018986e+01 2.186259e+01 -7.075289e+01 255 254 246
-2.024826e+01 2.439037e+01 -7.030069e+01 255 254 244
-2.076406e+01 2.671771e+01 -7.016492e+01 255 254 245
1.461785e+01 3.106966e+01 -7.578620e+01 142 134 135
-2.172198e+01 3.002470e+01 -6.969352e+01 120 109 83
-2.988710e+01 1.666430e+01 -6.910248e+01 55 73 15
-2.763142e+01 1.721195e+01 -6.966252e+01 84 89 30
-2.763142e+01 1.721195e+01 -6.966252e+01 84 89 30
-2.518176e+01 1.823187e+01 -7.188832e+01 236 224 174
-2.838024e+01 1.880379e+01 -7.138676e+01 83 96 46
-2.143182e+01 1.869308e+01 -7.026248e+01 229 234 129
3.635404e+01 8.750450e+00 -3.113487e+01 145 133 73
-2.320804e+01 1.946462e+01 -7.206716e+01 226 226 139
2.618319e+01 1.096948e+01 -3.887218e+01 190 192 114
-2.138250e+01 1.988579e+01 -7.175417e+01 225 218 184
2.969676e+01 1.058839e+01 -3.654563e+01 135 126 44
3.306564e+01 1.050776e+01 -3.529192e+01 131 144 67
3.350489e+01 1.048705e+01 -3.491935e+01 105 99 40
2.699509e+01 1.191516e+01 -3.976791e+01 109 118 46
2.592960e+01 1.201426e+01 -4.008930e+01 123 120 58
-2.088981e+01 2.137430e+01 -7.108032e+01 186 181 160
3.646417e+01 1.183794e+01 -3.591157e+01 146 131 74
2.894836e+01 1.287464e+01 -3.990926e+01 136 128 51
3.783664e+01 1.152091e+01 -3.442961e+01 186 178 109
3.689519e+01 1.189644e+01 -3.513551e+01 161 172 85
4.049095e+01 1.645085e+01 -4.596219e+01 93 103 70
4.264165e+01 1.941518e+01 -5.637537e+01 240 238 221
4.316866e+01 1.877561e+01 -5.322783e+01 179 190 131
4.356870e+01 1.877026e+01 -5.308264e+01 212 218 180
4.354577e+01 1.891316e+01 -5.334248e+01 77 82 57
4.354577e+01 1.891316e+01 -5.334248e+01 77 82 57
-2.171421e+01 2.944873e+01 -7.001294e+01 240 226 198
1.424697e+01 3.099219e+01 -7.566801e+01 132 125 133
-3.644222e+00 -3.664231e+00 6.728406e+00 170 184 185
-3.405124e+01 3.257272e+01 -1.042431e+02 178 178 165
1.487890e+01 7.977090e+00 -3.915032e+01 207 212 215
-5.031475e+01 3.786178e+01 -1.049955e+02 149 147 138
-8.046013e+00 -4.164172e+00 5.814208e+00 116 117 112
-8.817543e+00 -3.714667e+00 5.547212e+00 155 166 173
-2.288212e+01 -2.052757e+00 -7.607155e-01 255 255 255
-2.310485e+01 -1.632749e+00 -7.806364e-01 79 80 82
6.284883e+00 1.272526e+01 -5.019152e+01 235 234 138
1.502465e+01 1.515387e+01 -4.944863e+01 230 236 115
-4.865332e+01 3.426905e+01 -1.073403e+02 232 205 173
-4.865332e+01 3.426905e+01 -1.073403e+02 232 205 173
-2.330772e+01 -3.255279e+00 -1.280401e+00 208 208 206
1.398305e+01 8.174519e+00 -1.966689e+02 17 16 16
-2.250896e+01 1.986354e+00 3.849376e-02 231 238 244
5.303484e+00 1.242303e+01 -4.973636e+01 177 177 113
5.300595e+00 1.241446e+01 -4.971886e+01 177 177 113
1.528775e+01 1.210744e+01 -4.570480e+01 249 239 162
1.495380e+01 1.379531e+01 -4.774622e+01 175 192 86
1.489488e+01 1.372911e+01 -4.750681e+01 175 192 86
1.052965e+01 1.470674e+01 -5.068059e+01 231 233 129
1.269765e+01 1.561894e+01 -5.212314e+01 161 158 101
-3.005253e+00 2.516042e+01 -8.750726e+01 250 248 235
3.610624e+00 2.468150e+01 -8.442574e+01 250 250 236
5.832963e+00 2.403502e+01 -8.148046e+01 255 254 251
-1.953707e+01 3.207021e+01 -9.527663e+01 247 245 229
-5.212571e+01 3.538498e+01 -1.023015e+02 227 210 165
-4.708482e+01 3.925264e+01 -1.100442e+02 255 255 255
-2.287666e+01 -3.576531e+00 -1.092144e+00 204 210 210
-2.461828e+01 -3.000494e+00 -1.593698e+00 134 134 129
-1.118205e+01 -3.332641e+00 4.617860e+00 147 162 164
-2.242876e+01 -2.200460e+00 -5.468462e-01 200 209 212
1.255257e+01 9.804001e+00 -4.307006e+01 158 172 91
8.175640e+00 1.132607e+01 -4.694744e+01 123 131 77
8.175640e+00 1.132607e+01 -4.694744e+01 123 131 77
5.110237e+00 1.342275e+01 -5.141027e+01 157 149 86
1.785033e+01 1.305052e+01 -4.578945e+01 198 209 113
1.563587e+01 1.385478e+01 -4.773076e+01 216 215 119
1.153101e+01 1.601778e+01 -5.291442e+01 223 206 136
-4.849708e+01 3.271108e+01 -1.078788e+02 255 227 197
-1.979054e+01 2.376086e+01 -7.058146e+01 254 254 253
-1.934790e+01 3.156169e+01 -9.559929e+01 179 183 166
-4.761084e+01 3.616832e+01 -1.083611e+02 115 96 84
1.139485e+01 2.011846e+01 -5.235077e+01 127 121 125
1.139485e+01 2.011846e+01 -5.235077e+01 127 121 125
-4.690676e+01 3.758585e+01 -1.098854e+02 254 255 255
1.082808e+01 8.633318e+00 -4.156825e+01 222 226 220
1.176838e+01 8.670717e+00 -4.147122e+01 237 230 228
1.516628e+01 8.736393e+00 -4.054098e+01 114 111 76
1.173543e+01 8.985409e+00 -4.187537e+01 176 179 115
1.144371e+01 9.281136e+00 -4.246797e+01 222 198 139
1.287321e+01 1.043303e+01 -4.385004e+01 172 175 99
1.318996e+01 1.053283e+01 -4.390385e+01 225 218 141
1.572926e+00 1.208815e+01 -5.106479e+01 254 233 183
6.136324e+00 1.160691e+01 -4.829533e+01 225 215 128
-7.359205e-01 1.261011e+01 -5.174807e+01 195 189 152
-6.830433e+01 2.290273e+01 -8.784349e+01 138 126 100
-6.639547e+01 2.274892e+01 -8.698831e+01 163 150 117
1.332149e+01 1.436888e+01 -4.914462e+01 166 189 101
1.668416e+01 1.423274e+01 -4.771453e+01 210 199 122
1.572902e+01 1.440586e+01 -4.833019e+01 104 98 47
9.853337e+00 1.581349e+01 -5.317454e+01 176 189 104
-5.670412e+01 2.991119e+01 -9.426366e+01 217 199 164
-5.628306e+01 3.088338e+01 -9.486285e+01 212 179 139
-5.190336e+01 3.445829e+01 -1.020012e+02 255 236 206
-5.604990e+01 3.310627e+01 -9.425693e+01 237 226 170
-5.236260e+01 3.486954e+01 -1.009324e+02 126 113 91
-4.969951e+01 3.591291e+01 -1.049529e+02 237 229 196
1.226776e+01 8.615528e+00 -4.111084e+01 236 239 239
9.015461e+00 9.186913e+00 -4.342566e+01 151 151 123
1.099277e+01 8.961905e+00 -4.214105e+01 100 98 78
1.473546e+01 8.944994e+00 -4.096028e+01 223 218 153
1.694789e+01 9.419679e+00 -4.101515e+01 222 218 144
5.760941e+00 1.109863e+01 -4.805204e+01 229 224 131
5.760941e+00 1.109863e+01 -4.805204e+01 229 224 131
1.314998e+01 1.055273e+01 -4.381765e+01 221 212 134
8.054138e+00 1.164611e+01 -4.755824e+01 206 217 131
7.046397e+00 1.236946e+01 -4.883283e+01 177 170 109
-6.239063e+01 2.266178e+01 -8.609446e+01 110 107 102
1.082182e+01 1.334391e+01 -4.861963e+01 177 161 95
1.352379e+01 1.306364e+01 -4.720100e+01 206 219 129
3.571992e+00 1.615383e+01 -5.616240e+01 228 227 147
1.647900e+01 1.518493e+01 -4.911259e+01 238 238 129
4.128668e+00 2.444800e+01 -8.380166e+01 164 164 160
4.128668e+00 2.444800e+01 -8.380166e+01 164 164 160
-4.758425e+01 3.435369e+01 -1.094331e+02 124 97 82
-4.889923e+01 3.405786e+01 -1.070239e+02 247 219 195
-5.239121e+01 3.428484e+01 -1.006448e+02 222 198 162
-4.854417e+01 4.016272e+01 -1.065725e+02 244 206 180
-2.505659e+01 -8.664335e-01 -1.353836e+00 20 28 18
1.004741e+01 9.346145e+00 -4.312130e+01 147 130 86
-8.601895e+00 1.669788e+00 1.264136e+00 50 54 65
6.514224e+00 1.058775e+01 -4.640279e+01 170 182 82
9.412821e+00 1.081675e+01 -4.607429e+01 140 124 75
1.259200e+01 1.030544e+01 -4.324612e+01 161 158 91
1.235917e+01 1.038624e+01 -4.376583e+01 135 146 60
6.242279e+00 1.129041e+01 -4.776468e+01 118 116 50
2.781676e+00 1.177821e+01 -4.993082e+01 239 226 169
2.781676e+00 1.177821e+01 -4.993082e+01 239 226 169
-2.080946e-02 1.264706e+01 -5.185915e+01 62 65 36
-2.011861e-02 1.265512e+01 -5.188047e+01 62 65 36
-4.529573e-01 1.289628e+01 -5.190449e+01 52 39 34
1.315168e+01 1.146147e+01 -4.521265e+01 145 138 72
1.472039e+01 1.137962e+01 -4.468321e+01 224 213 125
1.385506e+01 1.144265e+01 -4.452095e+01 236 231 147
9.756326e+00 1.221718e+01 -4.733547e+01 217 219 140
6.134977e+00 1.268385e+01 -4.954713e+01 249 252 150
2.183179e-01 1.331063e+01 -5.220541e+01 211 223 162
8.092915e+00 1.282968e+01 -4.908453e+01 135 146 78
7.018142e+00 1.320591e+01 -4.994153e+01 236 242 115
-6.244850e+01 2.290999e+01 -8.721834e+01 100 86 84
-6.210562e+01 2.284359e+01 -8.597668e+01 219 212 175
6.540881e+00 1.384149e+01 -5.131353e+01 218 220 117
-6.210580e+01 2.321707e+01 -8.579629e+01 232 219 187
1.594127e+01 1.287225e+01 -4.632816e+01 157 173 81
7.277019e+00 1.391890e+01 -5.109868e+01 190 178 102
4.057434e+00 1.448247e+01 -5.339129e+01 165 169 94
1.735175e+01 1.303711e+01 -4.598114e+01 131 128 60
1.718050e+01 1.334281e+01 -4.654958e+01 247 234 166
4.919702e+00 1.589146e+01 -5.434440e+01 229 239 154
1.544265e+01 1.471160e+01 -4.926594e+01 231 225 113
1.597236e+01 1.481619e+01 -4.911054e+01 223 219 112
3.933765e+00 2.459483e+01 -8.316571e+01 251 248 241
3.903951e+00 2.452912e+01 -8.295942e+01 251 248 241
-5.630509e+01 2.999363e+01 -9.496680e+01 238 217 172
-5.140074e+01 3.223193e+01 -1.033677e+02 254 243 218
-4.711683e+01 3.374139e+01 -1.095477e+02 237 210 187
-5.112557e+01 3.300401e+01 -1.040590e+02 236 237 231
-5.112557e+01 3.300401e+01 -1.040590e+02 236 237 231
-5.213715e+01 3.251837e+01 -1.019952e+02 250 232 201
1.169843e+01 1.818054e+01 -5.226901e+01 127 122 85
-5.105350e+01 3.323726e+01 -1.037029e+02 237 242 239
-4.947177e+01 3.686701e+01 -1.052201e+02 235 228 201
-5.116283e+01 3.654524e+01 -1.028775e+02 250 252 250
-6.552421e+01 3.306968e+01 -8.370221e+01 146 93 80
-7.539682e+00 -4.619499e+00 5.678707e+00 232 233 233
4.796387e+00 -2.810266e+00 -3.045443e+00 189 194 186
-2.255564e+01 -2.351566e+00 -6.051801e-01 142 141 126
1.587246e+01 7.293159e+00 -3.799565e+01 144 132 131
-1.227699e+01 7.825445e-01 4.301396e+00 190 209 234
1.125073e+01 8.930903e+00 -4.223049e+01 94 98 80
1.332013e+01 8.643013e+00 -4.054492e+01 144 143 109
6.563482e+00 1.038922e+01 -4.628470e+01 252 241 177
5.416004e+00 1.116561e+01 -4.802320e+01 253 242 176
5.340195e+00 1.142393e+01 -4.793470e+01 228 230 133
1.245130e+01 1.066268e+01 -4.410835e+01 222 224 126
9.290338e+00 1.113640e+01 -4.568363e+01 222 217 127
1.172026e+01 1.098285e+01 -4.475925e+01 232 227 120
1.123234e+00 1.248896e+01 -5.188951e+01 142 98 61
6.902778e+00 1.182466e+01 -4.818367e+01 254 249 185
-3.655054e-01 1.263336e+01 -5.178218e+01 67 63 49
-2.209863e-01 1.269925e+01 -5.159732e+01 199 203 157
-2.047250e-01 1.273234e+01 -5.174760e+01 199 203 157
6.468452e-02 1.307280e+01 -5.178951e+01 45 50 23
1.433339e+00 1.372862e+01 -5.364245e+01 255 251 187
1.129946e+01 1.244216e+01 -4.685762e+01 224 218 118
6.767122e+00 1.337077e+01 -5.046218e+01 169 174 63
-6.367892e+01 2.260963e+01 -8.537050e+01 92 89 76
6.005603e+00 1.388719e+01 -5.185628e+01 231 228 125
-6.232980e+01 2.301453e+01 -8.565530e+01 119 115 107
3.721747e+00 1.439155e+01 -5.347421e+01 192 198 101
1.564942e+00 1.485546e+01 -5.547909e+01 230 230 153
7.900788e+00 1.387250e+01 -5.083699e+01 95 98 40
1.391033e+01 1.323082e+01 -4.748227e+01 212 213 138
9.995555e+00 1.371021e+01 -4.943000e+01 220 207 138
1.259693e+01 1.317859e+01 -4.687698e+01 169 169 85
4.503728e-01 1.552223e+01 -5.659297e+01 236 230 162
1.749479e+01 1.305634e+01 -4.583865e+01 222 225 140
1.743473e+01 1.302200e+01 -4.562861e+01 222 225 140
2.611867e+00 1.552913e+01 -5.566787e+01 222 225 142
5.396253e+00 1.533023e+01 -5.414942e+01 245 241 138
1.430373e+01 1.411002e+01 -4.856001e+01 225 221 121
-6.329035e-01 1.642066e+01 -5.838607e+01 194 186 110
1.102317e+01 1.500146e+01 -5.136910e+01 225 232 119
-5.932800e+01 2.552927e+01 -8.997248e+01 255 235 204
-5.932800e+01 2.552927e+01 -8.997248e+01 255 235 204
4.185032e+00 1.639751e+01 -5.630472e+01 160 153 78
4.185032e+00 1.639751e+01 -5.630472e+01 160 153 78
1.041806e+01 1.635109e+01 -5.405243e+01 227 228 139
1.013038e+01 1.646668e+01 -5.451124e+01 213 213 120
-5.676937e+01 2.778402e+01 -9.468808e+01 234 222 170
1.211809e+01 1.670183e+01 -5.270763e+01 255 255 222
-5.133046e+01 3.173582e+01 -1.034759e+02 248 229 210
-5.675256e+01 2.985709e+01 -9.392919e+01 234 210 175
-5.670458e+01 3.009795e+01 -9.364764e+01 233 218 177
-5.665432e+01 3.031484e+01 -9.453412e+01 227 203 170
-5.137296e+01 3.334922e+01 -1.030734e+02 255 242 222
-5.184230e+01 3.336044e+01 -1.015313e+02 157 142 106
-5.360684e+01 3.338076e+01 -9.879104e+01 226 215 153
-5.100638e+01 3.457734e+01 -1.030581e+02 248 251 251
-5.731168e+01 3.204884e+01 -9.244703e+01 255 238 202
-5.733494e+01 3.206623e+01 -9.250826e+01 255 238 202
-4.896293e+01 3.794357e+01 -1.061480e+02 254 226 209
-5.077942e+01 3.721893e+01 -1.028215e+02 238 238 230
-4.909296e+01 3.939505e+01 -1.058564e+02 248 219 194
-6.272205e+01 3.331301e+01 -8.371819e+01 204 186 167
-3.840638e+00 -2.104898e+00 6.168119e+00 255 255 255
-9.980224e+00 -2.621909e+00 4.410792e+00 153 168 175
-1.539836e+01 4.429642e+00 -4.162241e+00 181 200 154
-4.477975e+00 -1.926235e+00 7.333867e+00 239 146 83
-1.150969e+01 4.240485e-01 4.804578e+00 253 253 254
-8.502822e+00 -3.002687e+00 5.816737e+00 26 28 29
-7.560561e+00 -3.659581e+00 6.077622e+00 182 192 199
-7.539539e+00 -3.659339e+00 6.054119e+00 182 192 199
-7.672402e+00 -4.795480e+00 5.831544e+00 135 143 149
2.598430e+01 1.255033e+01 -4.121724e+01 187 176 108
-8.426337e+00 -3.816893e+00 5.797378e+00 172 183 187
-8.426337e+00 -3.816893e+00 5.797378e+00 172 183 187
-7.259959e+00 -3.591233e+00 6.276710e+00 187 194 203
-4.124380e+00 -2.019839e+00 7.439954e+00 254 255 253
-1.612838e+01 -4.336872e-02 3.149764e+00 241 250 254
-7.646961e+00 -3.032043e+00 6.212773e+00 217 224 223
-8.036474e+00 -3.357155e+00 6.014033e+00 200 210 219
1.569345e+01 -6.447854e-01 -8.899090e+00 121 123 116
2.521881e+01 1.104380e+01 -3.936569e+01 91 89 58
-1.726866e+01 -1.546819e+00 2.484854e+00 192 211 223
-1.117774e+01 -2.114056e+00 5.045688e+00 210 223 221
-1.114661e+01 -2.071068e+00 4.909721e+00 19 29 46
1.396126e+01 -1.723580e+00 -5.467391e+00 205 213 204
-6.628317e+00 -4.756827e+00 6.246166e+00 72 73 72
-7.536169e+00 -2.973217e+00 6.260699e+00 137 144 160
2.644305e+01 1.225520e+01 -4.004650e+01 147 142 77
-1.763015e+01 3.605031e+00 1.676746e+00 92 117 132
7.427022e+00 1.346407e+01 -5.046557e+01 207 198 78
-8.546972e+00 -2.737652e+00 5.890005e+00 150 146 136
1.390740e+01 1.045979e+01 -4.388842e+01 139 122 63
1.352503e+01 1.306352e+01 -4.720333e+01 202 212 118
1.501953e+01 1.263201e+01 -4.627235e+01 227 199 135
6.541197e+00 1.290469e+01 -4.991057e+01 98 88 27
6.972394e+00 1.323303e+01 -5.005679e+01 216 212 92
6.972394e+00 1.323303e+01 -5.005679e+01 216 212 92
-7.163041e+00 -4.212942e+00 6.120611e+00 77 78 79
1.450864e+01 9.268018e+00 -4.159436e+01 116 98 34
1.545017e+01 1.448006e+01 -4.867761e+01 79 61 16
-7.804477e+00 -4.976553e+00 5.672818e+00 161 154 146
-8.378178e+00 -4.939921e+00 5.394201e+00 169 158 150
-8.537339e+00 -4.874233e+00 5.347184e+00 160 152 139
-8.922920e+00 -4.564449e+00 5.244926e+00 183 176 169
-8.164388e+00 -2.712445e+00 6.067894e+00 145 136 130
1.830954e+01 1.412964e+01 -4.688198e+01 190 162 105
-7.448718e+00 -3.072147e+00 6.309458e+00 154 150 144
-2.789574e+00 6.617452e-01 3.211746e+00 126 115 113
-4.989426e+01 3.055441e+01 -1.063274e+02 238 226 201
-2.924682e+00 6.469753e-01 3.310937e+00 133 117 120
-5.250667e+01 3.070589e+01 -1.018803e+02 247 216 175
-4.939580e+01 3.192588e+01 -1.066725e+02 230 212 192
-5.012712e+01 3.167798e+01 -1.057520e+02 127 125 121
-4.706143e+01 3.397980e+01 -1.105143e+02 131 116 109
-5.020133e+01 3.414104e+01 -1.051290e+02 124 124 116
-5.020133e+01 3.414104e+01 -1.051290e+02 124 124 116
-2.600366e+01 6.497575e-01 -2.270505e+00 167 191 210
-2.393034e+01 -2.424963e+00 -1.298677e+00 171 179 188
-1.962827e+01 1.983483e+01 -7.084173e+01 128 128 95
-1.072437e+01 -3.390575e+00 4.785634e+00 145 158 171
-2.090628e+01 -2.463990e+00 3.109394e-01 114 130 141
-5.338113e+01 3.588736e+01 -9.845284e+01 169 157 124
-5.338113e+01 3.588736e+01 -9.845284e+01 169 157 124
-5.297269e+01 3.724655e+01 -9.913601e+01 218 210 167
-2.063643e+01 1.749857e+01 -6.868067e+01 212 218 183
-2.063850e+01 1.749906e+01 -6.868191e+01 212 218 183
-5.809874e+01 3.092823e+01 -9.199189e+01 250 231 198
-4.780221e+01 3.887648e+01 -1.080370e+02 246 221 191
-5.010491e+01 3.698559e+01 -1.044738e+02 225 215 194
-4.702023e+01 3.214425e+01 -1.110192e+02 137 122 115
-5.387529e+01 3.211122e+01 -9.889753e+01 237 204 170
-4.947357e+01 3.503708e+01 -1.058009e+02 228 216 189
-4.094051e+01 3.666418e+01 -1.080059e+02 207 204 185
-4.973706e+01 3.816777e+01 -1.046643e+02 165 150 130
-8.049443e+00 -3.628903e+00 5.796606e+00 174 183 189
3.856720e+01 8.930854e+00 -3.031318e+01 168 164 87
-2.362295e+01 -1.683213e+00 -1.013904e+00 30 27 28
-2.261400e+01 1.927928e+00 -1.032937e-01 203 225 246
-2.263937e+01 -2.680557e+00 -7.082834e-01 241 240 241
3.537356e+01 1.419926e+01 -4.143271e+01 192 192 114
-7.234320e+00 -4.272179e+00 6.108507e+00 146 154 158
-7.820072e+00 -3.853235e+00 5.989162e+00 99 100 94
-2.802308e+01 8.004495e-02 -2.617161e+00 118 137 153
4.398800e+01 8.609850e+00 -2.780814e+01 140 151 80
4.298568e+01 2.001952e+01 -5.615993e+01 225 219 203
4.489551e+01 1.773169e+01 -3.250342e+01 84 83 79
-2.321669e+01 -2.251800e+00 -8.508171e-01 187 195 206
-2.321669e+01 -2.251800e+00 -8.508171e-01 187 195 206
-2.116326e+01 -2.411432e+00 2.320137e-01 131 145 158
-2.219628e+01 -1.371871e+00 -3.871643e+00 27 27 37
4.026441e+01 8.701219e+00 -2.930320e+01 126 139 65
3.806597e+01 9.278438e+00 -3.108476e+01 76 73 37
3.806597e+01 9.278438e+00 -3.108476e+01 76 73 37
4.083598e+01 9.253462e+00 -2.957582e+01 40 35 34
4.026374e+01 1.131260e+01 -3.346508e+01 165 162 78
4.039622e+01 1.162230e+01 -3.294696e+01 73 70 50
4.130192e+01 1.656430e+01 -4.555920e+01 237 236 216
5.718499e+01 1.820155e+01 -5.087566e+01 224 220 206
-8.577867e+00 -3.950410e+00 5.632994e+00 172 177 181
-7.956585e+00 -3.703117e+00 5.952826e+00 174 182 194
-2.565544e+01 1.999396e+00 -1.406373e+00 57 76 99
-2.565544e+01 1.999396e+00 -1.406373e+00 57 76 99
3.635744e+01 7.023506e+00 -2.805550e+01 100 114 49
-1.523180e+01 1.598483e+01 -6.365145e+01 184 179 115
-1.522052e+01 1.666250e+01 -6.509016e+01 212 197 137
4.235195e+01 8.372940e+00 -2.799275e+01 140 142 81
4.105763e+01 1.140091e+01 -3.253375e+01 62 67 47
5.943101e+01 1.804047e+01 -4.943668e+01 235 232 214
-7.684708e+00 -2.918310e+00 6.138768e+00 29 31 34
-1.692177e+01 -1.010863e-01 2.862979e+00 158 168 190
3.940157e+01 5.713236e+00 -2.478798e+01 74 73 65
3.611349e+01 7.302073e+00 -2.922860e+01 91 92 62
-1.725451e+01 1.713138e+01 -6.712613e+01 124 125 68
-1.582937e+01 1.703878e+01 -6.572408e+01 196 184 134
3.065567e+01 9.294619e+00 -3.461161e+01 172 182 98
3.228598e+01 9.266543e+00 -3.318132e+01 110 109 57
4.110249e+01 8.602794e+00 -2.924295e+01 96 85 61
-1.223800e+01 1.765594e+01 -6.512906e+01 197 190 120
-1.669264e+01 1.861725e+01 -6.839217e+01 228 210 165
4.323457e+01 8.481743e+00 -2.747083e+01 121 140 58
4.356480e+01 8.829872e+00 -2.800381e+01 68 47 41
4.240865e+01 9.073825e+00 -2.808861e+01 48 37 28
3.720996e+01 1.067452e+01 -3.379326e+01 181 169 102
4.234408e+01 9.496844e+00 -2.779492e+01 49 50 37
3.399723e+01 1.153268e+01 -3.636286e+01 113 121 60
3.902222e+01 1.077763e+01 -3.297413e+01 79 82 39
4.404381e+01 1.823595e+01 -5.352093e+01 95 91 58
3.798131e+01 5.837143e+00 -2.577589e+01 107 103 95
3.806124e+01 6.013364e+00 -2.632210e+01 105 102 68
3.522937e+01 6.631513e+00 -2.831778e+01 171 175 107
-1.546239e+01 1.612930e+01 -6.445744e+01 135 136 76
3.420492e+01 7.992639e+00 -3.097731e+01 123 130 70
4.113218e+01 7.474941e+00 -2.759869e+01 74 69 43
-1.338950e+01 1.657413e+01 -6.406325e+01 190 180 113
-1.592296e+01 1.746749e+01 -6.658562e+01 141 130 77
3.793858e+01 8.766363e+00 -3.147223e+01 116 107 66
-1.526566e+01 1.812065e+01 -6.714869e+01 102 81 40
-1.700730e+01 1.849727e+01 -6.848727e+01 116 107 66
3.972456e+01 9.342279e+00 -3.061277e+01 71 69 46
3.555619e+01 1.036755e+01 -3.383546e+01 203 203 92
3.555619e+01 1.036755e+01 -3.383546e+01 203 203 92
3.568435e+01 1.109086e+01 -3.494473e+01 204 174 130
4.083600e+01 1.174804e+01 -3.344458e+01 82 76 58
3.954960e+01 1.233379e+01 -3.514596e+01 193 182 94
4.283229e+01 1.115286e+01 -2.849136e+01 178 168 135
6.242493e+01 1.688766e+01 -4.453332e+01 80 81 58
-2.409356e+01 -2.255448e+00 -1.414926e+00 121 111 97
-7.713628e+00 -3.855119e+00 6.085227e+00 181 187 175
-7.285563e+00 -3.467930e+00 6.125449e+00 81 90 94
-2.481686e+01 -6.996212e-01 -8.614067e-01 159 171 156
-2.234576e+01 5.366283e-01 4.434022e-01 115 120 126
3.477500e+01 7.363434e+00 -3.005225e+01 192 185 130
-1.743624e+01 1.639837e+01 -6.610353e+01 205 204 118
-1.477142e+01 1.605722e+01 -6.405592e+01 197 196 117
3.047992e+01 8.703661e+00 -3.373430e+01 62 60 29
3.981064e+01 8.341978e+00 -2.939020e+01 86 82 50
3.478204e+01 9.274547e+00 -3.305133e+01 209 200 122
-1.722167e+01 1.833408e+01 -6.842265e+01 217 198 147
4.326286e+01 8.583681e+00 -2.823306e+01 60 43 33
-1.312051e+01 1.796939e+01 -6.581279e+01 200 194 132
3.824046e+01 9.399228e+00 -3.114331e+01 84 89 45
-1.399861e+01 1.869791e+01 -6.759682e+01 138 127 61
4.231205e+01 9.227063e+00 -2.836876e+01 184 192 142
4.135070e+01 9.853424e+00 -2.867792e+01 48 47 34
4.113156e+01 9.960772e+00 -2.889182e+01 208 211 171
4.113156e+01 9.960772e+00 -2.889182e+01 208 211 171
3.015124e+01 1.229461e+01 -3.868869e+01 111 99 34
3.015124e+01 1.229461e+01 -3.868869e+01 111 99 34
4.325946e+01 1.082419e+01 -2.822397e+01 215 220 157
4.209086e+01 1.100110e+01 -2.873469e+01 198 220 169
4.347334e+01 1.090528e+01 -2.817949e+01 87 69 31
5.974967e+01 1.789759e+01 -4.896527e+01 97 100 76
1.136131e+01 2.108866e+01 -5.187775e+01 199 188 157
1.451395e+01 3.099900e+01 -7.553684e+01 138 126 130
-2.349779e+01 -3.576915e+00 -1.397887e+00 206 208 208
-2.259238e+01 -3.232504e+00 -1.038743e+00 247 248 237
-2.292152e+01 -2.603485e+00 -7.852261e-01 18 21 58
2.966335e+01 8.601451e+00 -3.415218e+01 141 127 73
4.182175e+01 7.239862e+00 -2.685330e+01 122 94 65
3.154519e+01 9.332371e+00 -3.417917e+01 210 209 123
-1.697928e+01 1.829133e+01 -6.861011e+01 229 215 158
-1.683019e+01 1.895267e+01 -6.881439e+01 241 221 185
3.010830e+01 1.144780e+01 -3.785092e+01 188 173 121
4.152498e+01 9.431204e+00 -2.881032e+01 169 174 146
3.423142e+01 1.114057e+01 -3.574506e+01 194 184 118
3.159904e+01 1.179864e+01 -3.739936e+01 93 95 37
2.984433e+01 1.232030e+01 -3.855867e+01 115 107 39
3.590735e+01 1.217059e+01 -3.655521e+01 105 103 52
4.120158e+01 1.218297e+01 -3.373657e+01 78 68 46
5.982818e+01 1.813926e+01 -4.902128e+01 228 230 206
6.262223e+01 1.764754e+01 -4.480009e+01 105 103 70
1.447147e+01 3.066905e+01 -7.510511e+01 241 233 225
-1.174124e+01 -4.107854e+00 3.598527e+00 13 13 13
-8.048799e+00 -3.685401e+00 5.976379e+00 151 160 174
-1.091884e+01 -2.813866e+00 5.039124e+00 135 148 156
-2.441683e+01 -5.836374e-01 -1.093286e+00 22 23 22
-2.406861e+00 -3.499079e+00 6.190559e+00 248 253 249
-6.423156e+00 -2.234962e+00 7.050399e+00 230 240 249
-5.559574e+01 3.074122e+01 -9.930590e+01 255 249 208
-6.038663e+00 -4.724060e+00 5.393702e+00 14 14 14
-1.036755e+01 -3.645835e+00 4.783199e+00 152 152 141
-8.831626e+01 2.635243e+01 -9.893248e+01 244 175 142
-8.831626e+01 2.635243e+01 -9.893248e+01 244 175 142
-1.871642e+01 3.115264e+01 -9.548035e+01 175 175 161
-4.380735e+00 -7.389604e+00 1.295504e+01 173 170 170
-9.864530e-01 -3.169280e+00 4.490507e+00 158 169 161
-9.120283e+00 -3.549701e+00 5.423005e+00 177 170 158
-2.059056e+00 -1.555826e+00 5.590043e+00 254 254 254
-9.063131e+01 2.427137e+01 -1.005600e+02 210 203 169
-8.586913e+01 2.520236e+01 -9.771482e+01 93 68 64
-9.195781e+01 2.773004e+01 -1.008652e+02 109 69 66
-9.195781e+01 2.773004e+01 -1.008652e+02 109 69 66
-9.379537e+01 3.482847e+01 -9.946335e+01 118 72 64
-9.055176e+00 -4.130351e+00 5.247127e+00 199 197 193
-8.989276e+00 -2.820215e+00 5.623671e+00 54 52 53
-1.907858e+00 -1.089223e+00 5.796594e+00 210 215 218
7.436641e+00 1.352180e+01 -5.066523e+01 234 232 117
-8.844896e+01 2.303520e+01 -9.929218e+01 241 236 216
-8.787733e+01 2.408065e+01 -9.870756e+01 108 107 102
-8.461624e+01 2.403012e+01 -9.669824e+01 90 91 79
-8.994999e+01 2.528174e+01 -1.000463e+02 91 79 72
-9.269800e+01 2.657110e+01 -1.011259e+02 240 179 149
-9.359852e+01 2.805445e+01 -1.014861e+02 234 164 131
-9.242359e+01 2.887549e+01 -1.003682e+02 117 77 66
-9.344779e+01 3.195996e+01 -1.003084e+02 112 67 62
-9.170415e+01 3.197901e+01 -9.903685e+01 246 185 148
-8.426842e+00 -4.644660e+00 5.432446e+00 22 21 28
-4.057429e+00 -2.001130e+00 7.150540e+00 254 253 253
-2.397334e+01 -1.758633e+00 -1.201723e+00 233 234 223
6.697839e+00 1.106139e+01 -4.750160e+01 232 233 146
-8.744243e+01 2.158962e+01 -9.889602e+01 237 237 220
-8.673358e+01 2.245351e+01 -9.845203e+01 134 134 136
-8.616852e+01 2.420893e+01 -9.747191e+01 201 193 156
-9.151194e+01 3.067812e+01 -9.938958e+01 241 170 135
-5.233740e+01 3.359434e+01 -1.001628e+02 250 216 173
-8.605920e+01 3.266228e+01 -9.567992e+01 237 173 143
-9.008972e+01 3.567120e+01 -9.742152e+01 140 104 87
-8.589058e+01 3.478472e+01 -9.409514e+01 234 176 142
-7.328569e+00 -5.507886e+00 5.656716e+00 21 23 22
-8.582724e+00 -3.480065e+00 5.739135e+00 161 171 172
-7.529840e+00 -3.092029e+00 6.245401e+00 31 30 36
-2.352477e+01 -3.275117e+00 -1.332450e+00 47 42 50
-3.438889e+00 -2.097246e+00 7.248709e+00 173 168 167
-3.435241e+00 -2.104077e+00 7.303143e+00 173 168 167
8.264859e+00 9.074065e+00 -4.364694e+01 239 244 241
-9.373379e-01 1.139319e+01 -5.181487e+01 255 252 207
6.186178e-01 1.165641e+01 -5.118706e+01 79 68 44
-2.991528e+00 1.208412e+01 -5.376542e+01 216 225 132
-2.567200e+00 1.219005e+01 -5.325092e+01 103 109 67
-3.157486e+00 1.269284e+01 -5.458018e+01 143 136 95
-2.845077e+00 1.287866e+01 -5.415907e+01 97 107 64
-3.764960e+00 1.362534e+01 -5.643386e+01 229 227 139
-8.959869e+01 2.118307e+01 -1.005480e+02 254 252 241
-9.002001e+01 2.176757e+01 -1.002894e+02 156 154 143
1.038912e+01 1.427881e+01 -5.070234e+01 183 161 102
1.040204e+01 1.617854e+01 -5.442136e+01 212 219 120
-9.332849e+01 2.597729e+01 -1.023220e+02 117 89 72
-2.067502e+01 2.714588e+01 -9.756102e+01 255 254 253
4.673303e+00 2.487542e+01 -8.526048e+01 247 247 234
-5.229005e+01 3.012402e+01 -1.016698e+02 227 191 157
-5.178001e+01 3.085409e+01 -1.034754e+02 244 226 201
-8.785605e+01 2.971098e+01 -9.755138e+01 210 146 116
-8.580381e+01 3.121411e+01 -9.588770e+01 235 170 137
-8.862003e+01 3.402520e+01 -9.673726e+01 225 160 129
-9.052988e+01 3.484071e+01 -9.781828e+01 238 165 133
-8.868040e+01 3.584839e+01 -9.616932e+01 213 156 124
-7.998531e+00 -4.349504e+00 5.820722e+00 144 153 157
-2.092922e+01 -2.815694e+00 -1.519088e-01 58 62 62
6.810770e+00 9.263605e+00 -4.454521e+01 243 243 240
6.068712e+00 9.453647e+00 -4.456418e+01 144 136 108
2.734600e+00 9.865397e+00 -4.676569e+01 130 126 87
5.999557e+00 9.830360e+00 -4.516039e+01 226 218 147
2.769728e-01 1.109751e+01 -5.080032e+01 61 50 33
9.256608e-01 1.133588e+01 -5.072952e+01 214 213 131
-6.909323e-01 1.181722e+01 -5.188479e+01 95 65 45
7.443269e+00 1.159526e+01 -4.796041e+01 179 189 103
-4.115806e+00 1.382148e+01 -5.649005e+01 186 183 123
3.122294e+00 1.430240e+01 -5.364305e+01 167 170 93
-9.100167e+01 2.371182e+01 -1.006490e+02 232 223 196
-8.818413e+01 2.483430e+01 -9.882756e+01 176 153 127
-8.789572e+01 2.533712e+01 -9.886386e+01 116 80 67
-8.309309e+01 2.475597e+01 -9.592474e+01 179 132 103
-8.213098e+01 2.524671e+01 -9.535374e+01 245 198 161
-9.029100e+01 2.769590e+01 -9.931937e+01 224 155 127
-8.560806e+01 2.941018e+01 -9.638155e+01 233 163 133
-9.070548e+01 3.143115e+01 -9.881034e+01 197 125 107
-4.766020e+01 3.364944e+01 -1.084580e+02 235 212 188
-8.489716e+01 3.086192e+01 -9.547753e+01 146 93 77
-2.142080e+01 3.158347e+01 -9.689489e+01 194 189 176
-4.931343e+01 3.421674e+01 -1.067765e+02 144 131 115
-9.307566e+01 3.512638e+01 -9.921465e+01 149 92 84
-8.898049e+01 3.497814e+01 -9.679186e+01 209 144 120
-9.321951e+01 3.636119e+01 -9.888935e+01 138 87 76
-6.682104e+01 3.263545e+01 -8.479769e+01 224 177 145
-6.467029e+01 3.248307e+01 -8.277646e+01 242 183 149
-9.661686e+00 -5.345845e+00 4.280947e+00 105 102 95
-7.550879e+00 -4.708387e+00 5.738805e+00 64 68 98
-8.762571e+00 -4.411792e+00 5.324699e+00 105 88 88
-2.171797e+01 -3.049301e+00 -3.666915e-01 109 111 106
-2.086992e+01 -2.568132e+00 3.556509e-01 36 44 47
-2.269634e+01 -2.407144e+00 -7.404568e-01 161 159 158
-1.130375e+01 -2.128864e+00 4.959231e+00 244 250 243
-2.284844e+01 -1.662902e+00 -6.121468e-01 205 215 220
5.319045e+00 2.331338e+00 -2.164985e+01 166 163 150
-1.604598e+01 -1.069299e-01 3.202458e+00 216 222 226
7.401824e+00 9.176468e+00 -4.395103e+01 240 237 230
7.032393e+00 9.402866e+00 -4.442082e+01 181 163 130
5.461907e+00 9.597102e+00 -4.537564e+01 187 179 130
4.201600e+00 9.710402e+00 -4.613560e+01 213 197 142
-8.099651e+00 2.068304e+00 2.178045e-01 42 44 39
3.434876e+00 1.180328e+01 -4.982346e+01 254 244 186
-3.474575e+00 1.231897e+01 -5.380761e+01 204 211 121
7.477269e+00 1.194335e+01 -4.837781e+01 229 229 135
-9.243507e+01 2.112523e+01 -1.024637e+02 175 173 169
-3.155104e+00 1.322668e+01 -5.544250e+01 244 237 163
5.987944e-01 1.287421e+01 -5.222342e+01 106 91 47
-9.052674e+01 2.180713e+01 -1.009701e+02 154 152 138
-1.204835e+00 1.386551e+01 -5.335030e+01 92 82 55
4.042249e+00 1.491368e+01 -5.434461e+01 230 224 167
-8.638023e+01 2.385407e+01 -9.779001e+01 203 196 170
-1.220037e+01 1.852694e+01 -6.655010e+01 245 238 169
-1.432915e+01 1.864707e+01 -6.734961e+01 155 136 57
-1.437940e+01 2.455668e+01 -8.848041e+01 212 208 135
-1.550071e+01 2.490285e+01 -8.992265e+01 163 159 95
3.900793e+00 2.469636e+01 -8.372829e+01 252 249 239
-8.803620e+01 2.832664e+01 -9.843808e+01 227 163 128
-5.121919e+01 3.081551e+01 -1.039908e+02 123 113 112
-8.479707e+01 2.919617e+01 -9.588702e+01 164 101 84
-8.385522e+01 2.925514e+01 -9.531710e+01 249 184 153
-8.495307e+01 2.974224e+01 -9.603218e+01 237 177 145
-7.320776e+01 2.812745e+01 -8.953268e+01 237 168 146
-2.013535e+01 2.342400e+01 -7.048805e+01 142 137 108
-8.236238e+01 3.009409e+01 -9.446419e+01 244 185 155
-8.313886e+01 3.058817e+01 -9.451862e+01 157 97 85
-5.188525e+01 3.283094e+01 -1.020593e+02 130 108 93
-5.188525e+01 3.283094e+01 -1.020593e+02 130 108 93
-9.223342e+01 3.356918e+01 -9.915164e+01 229 168 139
-9.053676e+01 3.324117e+01 -9.807651e+01 237 166 138
-9.053676e+01 3.324117e+01 -9.807651e+01 237 166 138
-9.282061e+01 3.381732e+01 -9.939873e+01 133 78 73
-9.228827e+01 3.643012e+01 -9.845736e+01 217 157 129
-5.328717e+01 3.644883e+01 -9.962048e+01 224 214 169
-9.055309e+01 3.702766e+01 -9.723729e+01 174 114 90
-6.662466e+00 -4.761409e+00 6.260570e+00 90 90 84
-8.387175e+00 -4.103350e+00 5.626682e+00 25 24 41
-2.421438e+01 -2.582469e+00 -1.537484e+00 255 255 251
-1.797822e+00 -1.636439e+00 5.463401e+00 42 46 53
-1.877720e+00 -1.322897e+00 5.666897e+00 48 46 45
-1.692698e+01 -1.181323e-01 2.857144e+00 136 146 167
1.006935e+01 8.989060e+00 -4.314321e+01 239 240 237
7.769770e+00 9.460674e+00 -4.431562e+01 232 227 154
-1.303726e+00 1.155205e+01 -5.185505e+01 65 48 37
6.373964e+00 1.114118e+01 -4.774268e+01 217 217 116
-6.818136e+00 1.266583e+01 -5.633916e+01 255 223 149
-9.337983e+01 2.052839e+01 -1.028198e+02 226 220 197
4.642262e+00 1.243100e+01 -5.076482e+01 244 245 153
3.966495e+00 1.247863e+01 -5.085562e+01 237 233 146
-8.679449e+00 1.355477e+01 -5.812848e+01 228 229 150
6.821934e+00 1.221726e+01 -4.864520e+01 226 230 150
-8.807219e+01 2.120152e+01 -9.971579e+01 245 246 231
-1.915964e+00 1.312549e+01 -5.286071e+01 166 171 118
-1.912294e+00 1.313889e+01 -5.296366e+01 166 171 118
-9.199631e+00 1.467710e+01 -6.001580e+01 151 135 84
-9.199631e+00 1.467710e+01 -6.001580e+01 151 135 84
-3.954353e-01 1.357044e+01 -5.197397e+01 222 233 177
3.247982e+00 1.403139e+01 -5.350371e+01 228 234 125
-1.322541e+01 1.609302e+01 -6.356526e+01 245 239 173
7.887492e+00 1.418848e+01 -5.142156e+01 231 229 138
4.971953e+00 1.485625e+01 -5.373504e+01 241 238 146
-1.337958e+01 1.667565e+01 -6.447178e+01 229 218 136
1.037582e+01 1.446636e+01 -5.098089e+01 166 154 92
6.657713e-01 1.553947e+01 -5.639458e+01 187 178 120
2.626664e+00 1.565868e+01 -5.630683e+01 225 227 133
-8.575065e+01 2.402805e+01 -9.757898e+01 174 169 138
-9.285193e+01 2.498176e+01 -1.014294e+02 171 163 132
8.998587e+00 1.572423e+01 -5.392948e+01 245 233 157
-1.519597e+01 1.813776e+01 -6.707820e+01 139 106 68
-1.516963e+01 1.809550e+01 -6.688669e+01 139 106 68
-9.028213e+01 2.507897e+01 -1.002734e+02 73 66 56
-1.007794e+01 1.769593e+01 -6.435003e+01 250 229 166
-1.312593e+01 1.804253e+01 -6.608638e+01 238 234 164
-9.952283e+00 1.809106e+01 -6.465727e+01 203 194 105
-6.136807e+01 2.246357e+01 -6.391649e+01 194 182 131
-8.356956e+01 3.085295e+01 -9.428751e+01 224 156 130
-5.243287e+01 3.306755e+01 -1.014890e+02 170 139 104
-5.243287e+01 3.306755e+01 -1.014890e+02 170 139 104
-9.268989e+01 3.299256e+01 -9.935276e+01 162 104 89
-9.159376e+01 3.338550e+01 -9.879482e+01 174 114 88
-9.159376e+01 3.338550e+01 -9.879482e+01 174 114 88
-6.134919e+01 2.382932e+01 -6.329923e+01 236 228 172
-5.223365e+01 3.463640e+01 -1.012331e+02 136 116 92
-5.595979e+01 3.384227e+01 -9.508375e+01 114 104 77
-9.137352e+01 3.571224e+01 -9.807650e+01 221 157 127
-6.149705e+01 2.517155e+01 -6.281481e+01 199 188 143
-2.190276e+01 2.777617e+01 -7.058652e+01 135 126 117
-4.693299e+01 3.974724e+01 -1.098650e+02 255 253 252
-5.262116e+01 3.736837e+01 -1.003145e+02 248 222 189
-8.971000e+01 3.767933e+01 -9.632717e+01 244 190 159
-7.322844e+00 -5.328988e+00 5.872455e+00 90 85 79
-8.251185e+00 -4.824415e+00 5.419432e+00 245 244 244
-8.078355e+00 -4.742892e+00 5.343161e+00 139 130 123
-8.131521e+00 -3.576689e+00 5.860915e+00 57 58 77
-1.011432e+01 -2.501671e+00 5.411592e+00 106 108 103
3.860686e+00 1.280770e+00 -1.840004e+01 254 253 235
-1.847523e+00 -1.260539e+00 5.681109e+00 206 214 190
-1.847523e+00 -1.260539e+00 5.681109e+00 206 214 190
-3.744761e+00 -1.289496e+00 7.330190e+00 63 70 97
-1.676311e+01 -1.373852e-01 2.821149e+00 241 248 238
3.685401e+00 8.663143e+00 -4.507477e+01 73 64 60
-1.185065e+01 3.901238e-01 4.734115e+00 254 254 248
9.443811e+00 8.896460e+00 -4.258588e+01 244 245 242
3.887508e+00 9.492658e+00 -4.576092e+01 245 249 243
-2.359390e+00 1.149615e+01 -5.236326e+01 255 226 149
-6.024562e+00 1.195063e+01 -5.440953e+01 255 255 202
-1.291052e+00 1.172957e+01 -5.192747e+01 215 210 172
-7.364766e-01 1.180264e+01 -5.201005e+01 82 53 41
-2.810663e-01 1.193521e+01 -5.165151e+01 103 80 67
-7.720574e-01 1.202606e+01 -5.172253e+01 77 53 31
5.925929e+00 1.180875e+01 -4.882933e+01 199 181 111
5.925929e+00 1.180875e+01 -4.882933e+01 199 181 111
-9.114860e+00 1.310804e+01 -5.788995e+01 255 248 181
9.503792e+00 1.185148e+01 -4.739250e+01 175 157 81
-1.511409e+00 1.258763e+01 -5.239646e+01 47 45 11
1.056003e+00 1.295723e+01 -5.241884e+01 245 233 157
6.505522e+00 1.280427e+01 -5.010469e+01 250 245 142
6.845213e+00 1.289867e+01 -5.000892e+01 168 153 49
9.491183e+00 1.307088e+01 -4.923430e+01 240 228 129
-9.066490e+00 1.481401e+01 -6.014653e+01 254 223 160
-6.438696e+00 1.472547e+01 -5.876075e+01 166 157 91
-9.409145e-01 1.403898e+01 -5.361411e+01 254 252 179
1.538743e+00 1.439722e+01 -5.479543e+01 182 187 102
-1.347214e+01 1.767119e+01 -6.569153e+01 237 226 161
-1.569554e+01 1.860799e+01 -6.760850e+01 236 226 144
-1.446000e+01 1.949128e+01 -6.951181e+01 252 248 170
-5.434185e+01 2.952692e+01 -9.894498e+01 253 253 249
-8.868764e+01 2.993879e+01 -9.799518e+01 184 124 95
-8.853250e+01 2.987018e+01 -9.774879e+01 184 124 95
-5.770333e+01 2.859785e+01 -9.268108e+01 255 243 202
-5.770333e+01 2.859785e+01 -9.268108e+01 255 243 202
-6.158968e+01 2.178650e+01 -6.414142e+01 207 196 155
-6.180445e+01 2.200556e+01 -6.413830e+01 250 238 204
-5.189747e+01 3.209572e+01 -1.027382e+02 255 233 205
-6.231645e+01 2.269587e+01 -6.413127e+01 254 242 203
-5.270048e+01 3.272535e+01 -1.006951e+02 247 228 175
-5.279619e+01 3.292681e+01 -1.004822e+02 160 142 94
-5.270393e+01 3.330892e+01 -1.005221e+02 243 227 158
-4.997740e+01 3.465394e+01 -1.049691e+02 226 219 201
-5.425701e+01 3.330782e+01 -9.878006e+01 68 62 47
-6.136767e+01 2.401806e+01 -6.311177e+01 242 234 177
-5.829954e+01 3.171268e+01 -9.102984e+01 255 240 209
-6.145379e+01 2.484771e+01 -6.268287e+01 243 232 185
-5.291464e+01 3.580227e+01 -9.889980e+01 155 146 113
-4.983201e+01 3.800073e+01 -1.042473e+02 225 218 189
-5.314911e+01 3.688640e+01 -9.927865e+01 160 146 112
-6.233910e+01 3.306295e+01 -8.399784e+01 216 190 167
-6.606976e+01 3.328083e+01 -8.360799e+01 137 81 70
-7.752070e+00 -3.636560e+00 5.561771e+00 191 189 186
-1.687815e+01 -2.685112e+00 1.770056e+00 152 154 155
4.189674e+01 7.781444e+00 -2.746060e+01 132 138 47
-8.439472e+00 -4.891732e+00 5.641874e+00 224 215 212
3.301874e+01 9.144456e+00 -3.296022e+01 187 178 93
4.201044e+01 1.750382e+01 -5.245696e+01 138 135 51
-6.872390e+00 -2.797553e+00 6.682402e+00 83 79 72
3.068074e+01 9.302721e+00 -3.463663e+01 152 166 76
3.469111e+01 1.100915e+01 -3.526499e+01 177 162 82
4.043281e+01 9.738353e+00 -2.948441e+01 14 14 11
-7.956325e+00 -4.339293e+00 5.731266e+00 180 175 171
4.157604e+01 7.575877e+00 -2.735415e+01 151 144 69
3.012685e+01 1.023979e+01 -3.610623e+01 125 117 63
4.109955e+01 9.317437e+00 -2.878496e+01 13 14 11
3.557433e+01 1.127745e+01 -3.516463e+01 68 69 27
3.821357e+01 1.121147e+01 -3.440786e+01 76 74 27
3.134728e+01 1.252166e+01 -3.851190e+01 201 171 107
4.313887e+01 1.894071e+01 -5.436792e+01 43 41 28
3.414645e+01 8.939929e+00 -3.237576e+01 106 103 46
3.151916e+01 1.177979e+01 -3.731800e+01 72 75 27
4.179945e+01 9.398592e+00 -2.882211e+01 24 20 16
3.121618e+01 1.350939e+01 -4.070585e+01 101 94 22
3.974285e+01 1.163901e+01 -3.402474e+01 212 196 134
-1.724756e+01 8.841403e-01 2.457013e+00 195 194 190
-1.335776e+01 2.021598e+00 4.003192e+00 151 169 131
-2.521796e+01 3.484769e+01 -9.844098e+01 166 163 157
-4.738191e+01 3.647106e+01 -1.094509e+02 241 221 198
-5.038050e+01 3.620621e+01 -1.042947e+02 132 135 140
-3.534208e-01 1.337616e+01 -5.196577e+01 97 90 39
-4.987640e+01 2.917313e+01 -1.067680e+02 190 182 162
-4.925730e+01 2.942815e+01 -1.072782e+02 212 202 167
-4.885614e+01 2.962743e+01 -1.081334e+02 239 211 193
-5.676104e+01 2.724558e+01 -9.486805e+01 225 213 169
-5.676104e+01 2.724558e+01 -9.486805e+01 225 213 169
-4.925444e+01 3.299147e+01 -1.068573e+02 233 219 190
-1.991943e+01 2.337501e+01 -7.058905e+01 245 235 224
-4.720914e+01 4.076526e+01 -1.090136e+02 251 246 246
-4.732157e+01 4.077935e+01 -1.086387e+02 132 120 114
-9.272078e+01 3.537008e+01 -1.004282e+02 207 141 112
-9.431342e+01 3.680447e+01 -9.951088e+01 127 89 74
-9.520192e+01 2.365252e+01 -1.034501e+02 143 138 131
-1.774644e+01 3.274205e+00 1.858543e+00 170 194 180
-9.552127e+01 3.430507e+01 -1.010096e+02 205 149 123
-9.579157e+01 2.163660e+01 -1.040314e+02 221 218 203
-9.388898e+01 3.099977e+01 -1.008301e+02 238 170 137
-1.060949e+02 3.316699e+01 -1.075225e+02 187 130 109
-9.529904e+01 3.247181e+01 -1.014855e+02 229 175 138
-9.396630e+01 2.983818e+01 -1.013805e+02 232 169 129
-1.001151e+02 3.871611e+01 -1.030441e+02 241 172 139
-9.532732e+01 2.351839e+01 -1.033339e+02 128 126 118
-9.532732e+01 2.351839e+01 -1.033339e+02 128 126 118
-9.490033e+01 2.832310e+01 -1.020978e+02 197 132 106
-8.763883e+01 2.894283e+01 -9.757131e+01 213 153 117
-9.888420e+01 3.500343e+01 -1.026822e+02 164 112 89
-9.578713e+01 3.509179e+01 -1.008824e+02 169 117 99
-9.662184e+01 3.526357e+01 -1.012328e+02 240 178 148
-9.649475e+01 3.520738e+01 -1.010478e+02 240 178 148
-4.959270e+01 3.741223e+01 -1.053406e+02 244 232 210
-9.449831e+01 3.867145e+01 -9.933440e+01 244 183 152
-9.608720e+01 3.916599e+01 -1.000130e+02 246 187 150
-4.513966e+01 4.093706e+01 -1.083978e+02 191 183 171
-6.576940e+01 3.372842e+01 -8.336948e+01 231 174 142
4.129801e+00 9.990236e+00 -4.664746e+01 254 249 187
-9.454877e+01 2.054158e+01 -1.034196e+02 213 207 179
-9.587138e+01 2.391063e+01 -1.035136e+02 195 190 172
-9.415595e+01 2.408248e+01 -1.025877e+02 134 132 117
-9.525540e+01 2.610866e+01 -1.029449e+02 222 171 137
-9.442392e+01 2.876950e+01 -1.017119e+02 194 129 97
-9.455936e+01 3.007681e+01 -1.014185e+02 197 134 109
-9.700220e+01 3.469429e+01 -1.016914e+02 188 128 105
-1.033893e+02 3.827753e+01 -1.043713e+02 181 124 104
-5.301279e+01 3.724197e+01 -9.921832e+01 238 227 191
-6.093833e+01 2.719947e+01 -6.243396e+01 239 235 189
-1.463263e+01 -3.102556e+00 3.030907e+00 65 71 75
-8.237961e+00 1.118350e+00 3.004437e+00 91 95 115
-9.571675e+01 2.102890e+01 -1.045467e+02 162 163 149
-1.248373e+01 1.638379e+01 -6.379509e+01 252 236 175
-1.248373e+01 1.638379e+01 -6.379509e+01 252 236 175
-7.493168e-02 1.650880e+01 -5.836367e+01 172 174 89
-7.910377e+01 2.823233e+01 -9.282422e+01 150 90 72
-6.136480e+01 2.184359e+01 -6.416366e+01 245 235 195
-7.195960e+01 3.273050e+01 -8.736898e+01 146 96 72
-6.817023e+01 3.249860e+01 -8.537252e+01 232 187 160
-6.390565e+01 3.275331e+01 -8.261933e+01 255 249 246
-6.468584e+01 3.327222e+01 -8.306025e+01 242 181 151
-9.905154e+00 1.092733e+00 3.551488e+00 52 60 61
-2.767583e-01 1.194953e+01 -5.171229e+01 103 80 67
-3.919945e-01 1.243924e+01 -5.166314e+01 218 210 175
-5.680117e+01 2.737843e+01 -9.447373e+01 187 166 130
-5.624241e+01 2.883527e+01 -9.456194e+01 118 98 67
-5.774580e+01 3.179859e+01 -9.161088e+01 255 240 208
-6.089548e+01 2.510192e+01 -6.350232e+01 242 234 174
-6.233520e+01 3.306233e+01 -8.399770e+01 216 190 167
-6.437353e+01 3.300708e+01 -8.292341e+01 188 129 120
-4.907291e+01 3.990485e+01 -1.058626e+02 254 227 203
-2.450728e+00 -1.565295e+00 6.207968e+00 255 255 255
-2.102491e+00 1.271573e+01 -5.380323e+01 88 90 64
-1.994407e+00 1.255182e+01 -5.279112e+01 88 90 64
4.232117e+00 9.210676e+00 -4.580030e+01 221 226 229
3.200630e-01 9.964668e+00 -4.931893e+01 226 230 231
3.200630e-01 9.964668e+00 -4.931893e+01 226 230 231
-2.696927e+00 -2.815767e+00 6.364753e+00 190 119 37
-9.255839e-01 -2.438821e+00 4.773621e+00 147 158 160
-9.223169e+01 3.516768e+01 -9.970591e+01 228 157 132
-6.599562e-01 -1.952006e+00 4.694172e+00 62 69 77
-1.603163e+00 -1.548259e+00 5.388679e+00 204 210 209
-4.616648e+00 -1.571570e+00 7.587378e+00 200 144 128
-4.676856e+01 3.714780e+01 -1.091650e+02 255 255 251
-8.222048e+00 -4.744134e+00 5.447177e+00 161 162 164
-7.213790e+00 -3.581224e+00 6.247581e+00 138 146 160
7.062139e+00 1.255789e+01 -4.899927e+01 188 176 100
6.283281e+00 1.270147e+01 -4.995439e+01 234 231 135
-1.525767e+01 1.655995e+01 -6.494205e+01 225 215 151
-9.372368e+01 3.392440e+01 -9.998524e+01 137 83 71
-9.372368e+01 3.392440e+01 -9.998524e+01 137 83 71
-1.873891e+00 -1.856003e+00 5.390454e+00 160 179 197
-2.286750e+01 -2.052289e+00 -7.214839e-01 255 255 255
4.305834e+00 1.640867e+00 -1.960717e+01 253 254 252
7.561862e+00 3.463902e+00 -2.502214e+01 162 157 154
7.888683e+00 9.914177e+00 -4.498149e+01 161 159 97
-1.263272e+01 1.214508e+00 4.248736e+00 200 218 233
8.029313e+00 2.399313e+01 -8.102050e+01 246 247 233
3.618206e+00 2.451941e+01 -8.365040e+01 246 246 234
-9.346664e+01 3.196421e+01 -1.003426e+02 126 75 70
-9.248732e+01 3.588965e+01 -9.894722e+01 249 186 154
-7.258215e+00 -4.550111e+00 5.936570e+00 111 112 113
-4.761274e-01 -1.965956e+00 4.557793e+00 222 222 213
-4.757743e+00 -2.450694e+00 7.441938e+00 245 248 248
3.182100e+00 1.092165e+00 -1.776012e+01 253 254 250
-3.627996e+00 -1.323488e+00 7.334183e+00 101 100 113
-1.853995e-01 -3.557048e-01 2.128485e+00 220 226 218
2.494318e+00 9.649394e+00 -4.673566e+01 236 243 243
-2.245816e+01 1.779614e+00 -4.023752e-02 76 88 103
5.134096e+00 1.298470e+01 -5.103409e+01 219 214 111
