ply
format ascii 1.0
element vertex 921
property float x
property float y
property float z
property uchar diffuse_red
property uchar diffuse_green
property uchar diffuse_blue
end_header
-1.061556e+01 -3.970165e+00 4.200707e+00 25 25 28
-1.073441e+01 -2.682136e+00 4.093642e+00 132 147 157
-2.207792e+01 2.327784e+00 -1.235743e+00 93 113 124
-2.207792e+01 2.327784e+00 -1.235743e+00 93 113 124
1.469286e+01 1.353820e+01 -4.666461e+01 212 212 127
-6.337495e+00 -1.982091e+00 6.292644e+00 255 255 253
-8.418969e+00 -4.170047e+00 4.570727e+00 10 11 11
-7.398957e+00 -4.112473e+00 4.995264e+00 13 13 12
-8.069986e+00 -3.558560e+00 5.048374e+00 161 173 189
-8.742812e+00 -3.120717e+00 4.649037e+00 10 10 10
1.776413e+01 1.074092e+01 -4.273578e+01 210 207 108
-1.392020e+01 -4.280846e+00 1.434668e-01 105 103 85
-9.033974e+00 -3.318020e+00 4.518958e+00 212 209 200
-2.235358e+01 -2.177326e+00 -1.541364e+00 21 21 20
-1.876881e+01 -9.618507e+00 1.971176e+01 79 75 79
-8.489794e+00 -3.857684e+00 4.663999e+00 159 168 175
-2.370596e+01 -1.200771e+00 -1.740297e+00 183 188 191
-2.229287e+01 2.092451e+00 -8.298343e-01 83 101 116
2.223516e+01 8.307690e+00 -3.667710e+01 156 155 101
-1.942576e+01 -8.895707e+00 1.685557e+01 108 110 95
-1.942576e+01 -8.895707e+00 1.685557e+01 108 110 95
-8.703665e+00 -4.254952e+00 4.411160e+00 226 226 218
-8.492703e+00 -3.620872e+00 4.783067e+00 167 176 181
-6.967571e+00 -3.524983e+00 5.411149e+00 41 48 54
-7.824084e+00 -3.388157e+00 5.056947e+00 166 173 186
-2.247197e+01 2.011427e+00 -8.143855e-01 183 211 234
1.483107e+01 1.003369e+01 -4.291721e+01 239 234 157
2.220988e+01 9.366576e+00 -3.868165e+01 197 196 106
1.250616e+01 1.106929e+01 -4.499353e+01 228 228 118
-2.235286e+01 -1.905248e+00 -1.391708e+00 205 214 220
-7.560119e+00 -2.759144e+00 5.344334e+00 193 208 217
2.075251e+01 6.938881e+00 -3.495034e+01 212 216 214
1.996426e+01 7.053429e+00 -3.550457e+01 211 213 210
1.863813e+01 8.019249e+00 -3.790710e+01 230 231 228
1.343131e+01 1.006929e+01 -4.356640e+01 221 215 133
1.156227e+01 1.104649e+01 -4.521757e+01 224 215 119
1.156410e+01 1.105449e+01 -4.523401e+01 224 215 119
2.035612e+01 1.076977e+01 -4.137991e+01 133 141 71
1.478386e+01 1.286766e+01 -4.709624e+01 227 211 148
2.771618e+01 1.116702e+01 -3.813100e+01 123 130 57
1.546014e+01 1.323039e+01 -4.716541e+01 213 224 126
-2.357264e+01 -3.916287e+00 -2.501659e+00 20 25 28
-7.921574e+00 -4.058134e+00 4.918656e+00 151 159 166
1.970769e+01 7.103761e+00 -3.587269e+01 207 215 209
-1.261901e+01 1.606039e+00 3.369451e+00 62 76 122
1.743946e+01 9.531978e+00 -4.142463e+01 220 212 151
1.658620e+01 9.559656e+00 -4.139079e+01 225 223 146
1.426634e+01 1.036337e+01 -4.374658e+01 230 220 159
1.888756e+01 1.035667e+01 -4.173172e+01 117 118 62
7.659036e+00 1.273636e+01 -4.976114e+01 218 216 130
7.659036e+00 1.273636e+01 -4.976114e+01 218 216 130
2.107915e+01 1.128827e+01 -4.208781e+01 211 207 135
2.092900e+01 1.150831e+01 -4.236033e+01 166 169 82
2.092900e+01 1.150831e+01 -4.236033e+01 166 169 82
1.837949e+01 1.211460e+01 -4.427670e+01 158 146 86
-7.497712e+00 -3.559535e+00 5.161639e+00 99 102 116
-3.445052e+01 -1.639302e+00 -1.320852e+01 57 67 77
-8.476028e+00 -3.281795e+00 4.842052e+00 172 180 184
-2.365759e+01 -2.289421e+00 -1.982650e+00 211 212 217
-2.916930e+00 -2.805364e+00 6.383767e+00 156 97 87
1.112464e+01 2.577824e-01 -1.288057e+01 53 50 57
-1.682617e+01 1.766308e-01 2.012148e+00 150 158 182
-2.559684e+01 2.308324e+00 -2.347303e+00 55 81 110
1.824281e+01 8.117817e+00 -3.856333e+01 233 235 235
1.692602e+01 8.655281e+00 -3.956123e+01 130 115 82
1.600028e+01 9.010807e+00 -4.065387e+01 252 226 180
1.305768e+01 1.022677e+01 -4.378482e+01 222 216 120
1.627828e+01 1.018752e+01 -4.222486e+01 234 221 152
8.818527e+00 1.149560e+01 -4.698287e+01 232 237 145
2.056071e+01 1.031361e+01 -4.098923e+01 220 221 141
1.596616e+01 1.200780e+01 -4.512174e+01 147 155 79
1.218364e+01 1.262516e+01 -4.756526e+01 227 229 110
1.218364e+01 1.262516e+01 -4.756526e+01 227 229 110
2.926624e+01 1.046511e+01 -3.675722e+01 204 187 109
-1.592343e+01 1.759212e+01 -6.715037e+01 117 128 121
9.781478e+00 1.357794e+01 -4.966573e+01 144 136 73
1.202538e+01 1.349316e+01 -4.875132e+01 189 190 106
2.284704e+01 1.212722e+01 -4.213157e+01 122 126 69
3.020889e+01 2.138145e+01 -6.738025e+01 249 250 244
3.020889e+01 2.138145e+01 -6.738025e+01 249 250 244
-6.563856e+00 -4.473058e+00 5.388543e+00 79 80 75
-7.644929e+00 -3.131748e+00 5.211864e+00 161 158 165
-2.314005e+01 -1.496181e+00 -1.654725e+00 251 253 251
-8.113623e+00 1.322501e+00 2.148090e+00 203 211 214
1.936620e+01 7.798902e+00 -3.681534e+01 227 229 231
1.733037e+01 8.753149e+00 -3.967884e+01 135 125 87
1.231882e+01 1.023013e+01 -4.392568e+01 218 226 120
1.234526e+01 1.024655e+01 -4.400206e+01 218 226 120
2.584169e+01 9.032372e+00 -3.657732e+01 211 195 129
2.100276e+01 9.777758e+00 -3.990706e+01 112 103 46
2.100276e+01 9.777758e+00 -3.990706e+01 112 103 46
1.162925e+01 1.145144e+01 -4.597152e+01 152 141 84
1.162925e+01 1.145144e+01 -4.597152e+01 152 141 84
1.823659e+01 1.090138e+01 -4.281045e+01 224 218 120
1.210889e+01 1.163572e+01 -4.592169e+01 151 136 38
2.626748e+01 1.001413e+01 -3.753775e+01 201 194 122
1.227549e+01 1.190990e+01 -4.633016e+01 223 231 125
7.903549e+00 1.280491e+01 -4.927768e+01 142 162 64
1.281404e+01 1.242067e+01 -4.699892e+01 183 161 103
7.629260e+00 1.321467e+01 -5.007930e+01 237 220 152
1.157438e+01 1.283661e+01 -4.804867e+01 222 228 114
7.116356e+00 1.345951e+01 -5.084558e+01 251 251 142
1.927096e+01 1.206716e+01 -4.387976e+01 208 186 118
9.722218e+00 1.323356e+01 -4.910947e+01 220 221 115
9.722218e+00 1.323356e+01 -4.910947e+01 220 221 115
1.276572e+01 1.323526e+01 -4.771517e+01 207 216 107
-8.653578e+00 -4.191744e+00 4.367849e+00 98 92 111
-2.291176e+01 -3.308326e+00 -1.971524e+00 213 215 219
-8.995682e+00 -3.896141e+00 4.392978e+00 149 149 140
-2.260398e+01 -3.070351e+00 -1.791555e+00 253 254 255
-8.862608e+00 -3.232476e+00 4.437153e+00 156 151 144
-8.562876e+00 -2.718502e+00 4.719393e+00 152 139 131
-2.303177e+01 -1.617386e+00 -1.556220e+00 157 168 177
-2.377236e+01 -1.334864e+00 -2.076790e+00 103 96 82
-2.115864e+01 1.714287e+00 -1.833321e-01 185 200 214
1.828772e+01 7.068827e+00 -3.683162e+01 144 126 113
1.946636e+01 8.000886e+00 -3.731756e+01 167 165 129
1.808937e+01 8.491509e+00 -3.912552e+01 112 111 74
9.723712e+00 1.073908e+01 -4.605778e+01 156 150 86
1.974465e+01 9.778870e+00 -4.077320e+01 218 219 148
9.503817e+00 1.092454e+01 -4.582144e+01 114 112 49
7.887083e+00 1.130125e+01 -4.730868e+01 96 89 48
1.594054e+01 1.073771e+01 -4.301970e+01 142 144 73
8.027899e+00 1.202008e+01 -4.826150e+01 132 137 60
1.598622e+01 1.180618e+01 -4.511748e+01 239 234 159
1.598622e+01 1.180618e+01 -4.511748e+01 239 234 159
1.161905e+01 1.267095e+01 -4.754548e+01 219 224 128
-1.552860e+01 1.696172e+01 -6.626680e+01 198 211 180
2.827685e+01 1.047383e+01 -3.697669e+01 159 154 74
1.753316e+01 1.213426e+01 -4.472073e+01 233 227 122
8.369487e+00 1.338274e+01 -4.992889e+01 112 110 40
8.593791e+00 1.356367e+01 -5.021867e+01 224 216 137
2.407186e+01 1.191813e+01 -4.157460e+01 149 149 86
1.599641e+01 1.317073e+01 -4.681602e+01 136 132 60
1.676081e+01 1.344936e+01 -4.721856e+01 241 239 154
-2.123419e+01 2.493131e+01 -7.166116e+01 245 238 222
-1.027683e+01 -3.956790e+00 3.220223e+00 24 28 33
-1.601736e+01 2.958426e+00 -1.269082e+00 50 68 87
-2.127187e+01 -5.084499e+00 7.860918e-01 113 116 114
-2.868774e+01 3.268762e-01 -4.457718e+00 150 190 224
-8.411702e+00 -4.184384e+00 4.542076e+00 13 15 14
-7.421547e+00 -4.116141e+00 5.023208e+00 13 13 12
-1.143930e+01 -2.929034e+00 3.658853e+00 154 167 177
-8.767840e+00 -3.102326e+00 4.680077e+00 11 13 10
-2.621407e+01 -3.543631e+00 -4.592677e+00 116 117 109
-2.351260e+01 -2.857973e+00 -2.190248e+00 19 22 21
-7.726591e+00 -4.111415e+00 4.904799e+00 147 156 167
-2.354886e+01 -2.506336e+00 -2.099910e+00 170 181 188
-8.146344e+00 -4.054972e+00 4.787334e+00 156 166 175
-2.223238e+01 -2.572906e+00 -1.468115e+00 176 185 190
-7.407133e+00 -3.797892e+00 5.084203e+00 199 204 207
-1.697736e+01 -2.421570e+00 1.029082e+00 132 148 163
3.633273e+01 9.870693e+00 -3.317070e+01 193 197 86
3.080872e+01 1.207784e+01 -3.807806e+01 126 131 63
3.080872e+01 1.207784e+01 -3.807806e+01 126 131 63
-2.290090e+01 -2.371322e+00 -1.682010e+00 152 157 173
-2.297522e+01 -1.963051e+00 -1.605604e+00 142 147 152
-2.336175e+01 -1.882158e+00 -1.775536e+00 148 153 158
-2.279029e+01 -1.812505e+00 -1.480254e+00 254 254 255
-7.974494e+00 -3.220699e+00 5.103678e+00 117 125 124
-2.409817e+01 -1.205642e+00 -1.933039e+00 85 85 85
-7.407492e+00 -2.545082e+00 5.569694e+00 30 34 40
3.504874e+01 1.038303e+01 -3.405256e+01 204 203 98
3.379902e+01 1.081211e+01 -3.585234e+01 143 155 67
-7.128368e+00 -3.466004e+00 5.307518e+00 17 17 16
-7.304846e+00 -2.817837e+00 5.502259e+00 60 68 74
3.118737e+01 7.023897e+00 -3.056753e+01 89 94 65
3.107418e+01 8.263486e+00 -3.270551e+01 202 199 135
3.170592e+01 8.610246e+00 -3.283728e+01 104 113 63
3.170592e+01 8.610246e+00 -3.283728e+01 104 113 63
2.192183e+01 1.107007e+01 -4.105814e+01 148 163 77
3.109660e+01 9.920597e+00 -3.524554e+01 200 214 100
2.499075e+01 1.096344e+01 -3.940332e+01 174 180 76
3.686720e+01 9.607208e+00 -3.237039e+01 203 207 97
3.025815e+01 1.124823e+01 -3.736261e+01 203 184 117
3.297668e+01 1.096228e+01 -3.590635e+01 201 203 103
-2.308840e+01 -2.662104e+00 -1.860132e+00 174 182 188
-2.308837e+01 -2.661624e+00 -1.860076e+00 174 182 188
-1.656693e+01 1.902666e-01 1.912645e+00 129 142 159
3.174990e+01 6.293503e+00 -2.911976e+01 211 216 219
2.585061e+01 9.489509e+00 -3.694247e+01 212 204 123
2.708030e+01 9.490777e+00 -3.674290e+01 192 191 119
3.050420e+01 9.367016e+00 -3.454485e+01 104 105 44
2.521436e+01 1.029637e+01 -3.858992e+01 239 224 180
2.634560e+01 1.145967e+01 -3.918928e+01 199 192 104
-8.277304e+00 -2.518300e+00 5.056779e+00 27 30 29
-1.730846e+01 -1.250176e+00 1.473940e+00 204 216 224
-2.836249e+01 4.880246e-01 -3.898439e+00 110 130 155
2.657137e+01 7.458495e+00 -3.308799e+01 184 193 108
3.250320e+01 6.704371e+00 -2.966524e+01 89 82 53
3.073859e+01 7.302810e+00 -3.111998e+01 118 120 81
2.875070e+01 9.228858e+00 -3.528015e+01 123 128 66
3.034688e+01 9.528336e+00 -3.481742e+01 117 127 75
3.031124e+01 9.518890e+00 -3.477784e+01 117 127 75
2.585406e+01 1.070838e+01 -3.887086e+01 79 64 37
2.722996e+01 1.060716e+01 -3.786001e+01 101 107 62
3.491781e+01 9.889338e+00 -3.342352e+01 120 120 53
3.576401e+01 9.929141e+00 -3.312878e+01 210 216 93
3.636285e+01 9.953767e+00 -3.300285e+01 215 214 96
3.678865e+01 1.007339e+01 -3.280341e+01 120 120 65
2.668152e+01 1.218054e+01 -4.063635e+01 126 145 57
-1.725547e+01 5.561856e+00 -7.601863e+00 182 207 163
3.126892e+01 1.168110e+01 -3.719849e+01 139 134 79
2.283750e+01 1.346191e+01 -4.432447e+01 211 212 111
-4.703218e+00 -2.066135e+00 6.579057e+00 200 220 247
-4.703911e+00 -2.067704e+00 6.581166e+00 200 220 247
2.893885e+01 8.748207e+00 -3.464177e+01 119 112 73
3.172725e+01 8.413726e+00 -3.239352e+01 192 204 132
2.872132e+01 8.945738e+00 -3.477526e+01 110 108 56
3.019244e+01 8.934287e+00 -3.400366e+01 198 201 110
2.180562e+01 1.054670e+01 -4.035969e+01 188 194 104
1.411108e+01 1.209667e+01 -4.610290e+01 221 210 130
3.218300e+01 9.004533e+00 -3.309153e+01 203 215 135
3.484970e+01 8.948210e+00 -3.214840e+01 131 120 78
2.939291e+01 1.021999e+01 -3.623470e+01 147 140 82
2.935867e+01 1.021302e+01 -3.619118e+01 147 140 82
2.618870e+01 1.089433e+01 -3.867635e+01 199 202 110
3.279178e+01 1.008408e+01 -3.446601e+01 206 211 117
3.678370e+01 9.567220e+00 -3.212588e+01 204 203 96
2.968025e+01 1.077673e+01 -3.698857e+01 147 131 55
2.968131e+01 1.077330e+01 -3.698947e+01 147 131 55
1.285616e+01 1.491191e+01 -5.080543e+01 229 218 124
-2.318568e+01 -4.043724e+00 -2.078694e+00 119 119 114
-8.039607e+00 -3.894412e+00 4.922386e+00 19 27 53
-1.632256e+01 -2.638263e+00 1.546318e+00 49 58 66
-8.938472e+00 -3.279737e+00 4.471318e+00 84 79 91
-2.391476e+01 -1.416854e+00 -1.984189e+00 255 254 253
-1.722086e+01 -1.201306e+00 1.510772e+00 27 39 54
-1.600302e+01 1.956402e-01 2.366468e+00 223 241 243
3.026101e+01 6.451034e+00 -2.980174e+01 210 215 217
3.142249e+01 6.503161e+00 -3.013008e+01 209 214 215
3.132529e+01 6.594317e+00 -2.978917e+01 145 132 108
2.693940e+01 8.067811e+00 -3.417405e+01 198 210 127
3.002642e+01 8.529644e+00 -3.400334e+01 128 123 60
-2.542232e+01 1.847798e+01 -7.248917e+01 233 216 167
2.925311e+01 8.860496e+00 -3.457820e+01 225 207 138
3.323573e+01 8.334961e+00 -3.197075e+01 134 131 78
2.819507e+01 9.430886e+00 -3.568524e+01 95 96 48
1.872588e+01 1.132618e+01 -4.322693e+01 215 213 100
3.570132e+01 9.489732e+00 -3.276338e+01 141 145 49
3.667621e+01 9.668884e+00 -3.239830e+01 205 207 95
3.466127e+01 1.033491e+01 -3.437577e+01 126 122 51
3.466127e+01 1.033491e+01 -3.437577e+01 126 122 51
3.545399e+01 1.025951e+01 -3.370992e+01 132 121 73
3.610437e+01 1.030070e+01 -3.354238e+01 110 109 48
2.781216e+01 1.168450e+01 -3.901278e+01 112 117 44
3.558292e+01 1.043836e+01 -3.375186e+01 179 176 106
2.500792e+01 1.245843e+01 -4.119060e+01 211 205 127
2.500143e+01 1.245717e+01 -4.118102e+01 211 205 127
2.769850e+01 1.212326e+01 -3.961082e+01 131 120 62
3.231422e+01 1.148966e+01 -3.697465e+01 134 120 74
1.984878e+01 1.407632e+01 -4.648637e+01 233 222 151
-2.220469e+01 2.727518e+01 -7.198409e+01 76 72 61
-2.378064e+01 -3.056883e+00 -2.312405e+00 189 190 199
-8.757907e+00 -4.278052e+00 4.382170e+00 153 147 145
-8.586245e+00 -3.727210e+00 4.530618e+00 92 95 94
-2.258659e+01 -2.115834e+00 -1.507311e+00 142 142 133
-2.295123e+01 -2.053611e+00 -1.656275e+00 50 55 82
-2.399254e+01 -4.089719e-03 -1.422609e+00 160 179 177
-1.673250e+01 1.982029e-01 1.983349e+00 235 245 253
-1.667275e+01 2.293028e-01 1.993511e+00 69 78 95
-1.218559e+01 7.513686e-01 3.986284e+00 169 176 176
3.040184e+01 5.755629e+00 -2.943853e+01 183 190 182
-1.255066e+01 1.667948e+00 3.361572e+00 232 244 252
3.026461e+01 7.126734e+00 -3.104613e+01 240 220 171
3.026461e+01 7.126734e+00 -3.104613e+01 240 220 171
2.127967e+01 9.609321e+00 -3.957060e+01 179 189 112
-2.566381e+01 1.843233e+01 -7.273546e+01 236 224 174
2.518171e+01 1.040162e+01 -3.883902e+01 217 204 154
2.490429e+01 1.061411e+01 -3.899973e+01 203 218 121
2.883913e+01 9.972279e+00 -3.617455e+01 215 214 117
2.883913e+01 9.972279e+00 -3.617455e+01 215 214 117
2.882991e+01 1.006374e+01 -3.644229e+01 202 198 105
1.276602e+01 1.279958e+01 -4.750395e+01 234 217 137
2.585427e+01 1.084546e+01 -3.889814e+01 92 88 24
2.585427e+01 1.084546e+01 -3.889814e+01 92 88 24
-7.172110e+00 -3.315834e+00 5.410276e+00 170 184 191
2.919835e+01 2.138047e+01 -6.795565e+01 246 248 235
-2.203853e+01 1.626177e+01 -6.849649e+01 218 227 186
-1.670952e+01 -2.175201e+00 -5.784741e+00 159 169 168
-7.766257e+00 -3.259553e+00 5.621100e+00 235 239 244
-8.697698e+00 -3.409843e+00 4.497324e+00 157 165 171
-1.051425e+01 1.221935e+00 3.045286e+00 162 169 165
2.264249e+01 1.371158e+01 -4.468238e+01 188 186 116
1.935204e+01 1.544512e+01 -4.919860e+01 237 233 136
1.163756e+01 1.409707e+01 -5.019555e+01 239 238 118
9.366856e+00 1.627741e+01 -5.468231e+01 228 228 137
5.197608e+00 1.459367e+01 -5.326933e+01 230 237 130
9.696394e+00 1.406238e+01 -5.073346e+01 230 225 118
2.103527e+01 1.370183e+01 -4.544760e+01 171 174 82
2.103527e+01 1.370183e+01 -4.544760e+01 171 174 82
1.748391e+01 1.428578e+01 -4.784131e+01 232 228 148
1.022267e+01 1.541970e+01 -5.264565e+01 162 157 92
-3.510967e+00 -1.015524e+00 6.339073e+00 107 107 142
2.048379e+01 1.377192e+01 -4.583216e+01 144 139 78
1.218250e+01 1.510270e+01 -5.155564e+01 213 203 121
2.581116e+01 1.323218e+01 -4.231387e+01 174 154 85
1.529110e+01 1.480575e+01 -4.940017e+01 229 222 116
1.824301e+01 1.435043e+01 -4.725987e+01 205 208 107
1.148483e+01 1.770778e+01 -5.300910e+01 246 225 174
-6.324186e+00 -3.668583e+00 5.638688e+00 84 83 82
-1.016333e+01 1.169540e+00 2.837809e+00 43 47 50
6.245038e+00 1.395696e+01 -5.194614e+01 212 213 106
9.992454e+00 1.446489e+01 -5.106969e+01 141 126 72
2.436985e+01 1.301451e+01 -4.310346e+01 183 190 96
2.417936e+01 1.308341e+01 -4.319373e+01 140 144 68
9.971827e+00 1.491221e+01 -5.150461e+01 244 241 141
6.459632e+00 1.581082e+01 -5.493415e+01 243 233 161
2.337536e+01 1.354981e+01 -4.435680e+01 141 156 60
1.062922e+01 1.588458e+01 -5.354923e+01 222 225 148
1.011874e+01 1.710575e+01 -5.659032e+01 108 117 56
1.011874e+01 1.710575e+01 -5.659032e+01 108 117 56
1.137991e+01 1.648661e+01 -5.342731e+01 122 117 79
-7.442970e+00 -4.514614e+00 4.935533e+00 134 146 158
9.188841e+00 1.379345e+01 -5.041158e+01 223 223 121
9.392669e+00 1.392968e+01 -5.048341e+01 188 166 87
9.393230e+00 1.392983e+01 -5.048699e+01 188 166 87
9.326266e+00 1.504560e+01 -5.221740e+01 195 179 97
2.110925e+01 1.356032e+01 -4.504613e+01 232 219 144
1.241758e+01 1.534184e+01 -5.181632e+01 144 123 69
2.422719e+01 1.372215e+01 -4.418373e+01 223 212 149
2.505410e+01 1.390208e+01 -4.420690e+01 130 122 79
2.505410e+01 1.390208e+01 -4.420690e+01 130 122 79
2.378221e+01 1.441332e+01 -4.562122e+01 232 220 157
1.129624e+01 1.619858e+01 -5.346309e+01 243 228 178
-8.532131e+00 -3.009074e+00 4.940324e+00 180 190 202
3.714445e+01 1.103402e+01 -3.396192e+01 123 118 77
3.853863e+01 1.229139e+01 -3.536756e+01 197 191 95
2.291176e+01 1.336249e+01 -4.447057e+01 201 203 89
2.291176e+01 1.336249e+01 -4.447057e+01 201 203 89
3.734274e+01 1.069019e+01 -3.352508e+01 176 177 89
3.734274e+01 1.069019e+01 -3.352508e+01 176 177 89
3.388531e+01 1.185215e+01 -3.662398e+01 180 179 83
3.643308e+01 1.155800e+01 -3.476760e+01 137 139 87
3.361297e+01 1.210903e+01 -3.711605e+01 199 191 108
-2.691119e+01 3.402919e+01 -1.016379e+02 188 189 176
1.127271e+01 2.182337e+01 -5.217579e+01 245 237 216
1.116741e+01 2.274020e+01 -5.176726e+01 254 249 228
1.084072e+01 2.303434e+01 -5.215495e+01 94 95 84
1.116070e+01 2.378635e+01 -5.155327e+01 254 251 228
3.686055e+01 1.025120e+01 -3.323675e+01 128 123 67
3.804252e+01 1.045292e+01 -3.313926e+01 174 168 84
3.442852e+01 1.193937e+01 -3.661684e+01 142 136 89
3.677049e+01 1.230407e+01 -3.624880e+01 182 177 86
3.698982e+01 1.107973e+01 -3.412752e+01 115 103 54
3.561748e+01 1.217430e+01 -3.643678e+01 208 209 132
3.502681e+01 1.275106e+01 -3.771816e+01 214 210 123
3.740355e+01 1.254409e+01 -3.624421e+01 130 128 71
2.731713e+01 2.183694e+01 -7.000056e+01 249 247 238
4.320754e+00 1.379267e+01 -5.280939e+01 125 150 123
3.686295e+00 1.450428e+01 -5.395382e+01 152 172 147
3.484778e+01 1.115532e+01 -3.568811e+01 184 183 111
3.709142e+01 1.109730e+01 -3.423507e+01 114 102 53
3.749502e+01 1.141585e+01 -3.450021e+01 171 159 98
3.831400e+01 1.130272e+01 -3.375111e+01 129 118 62
3.296464e+01 1.231432e+01 -3.770142e+01 158 137 72
3.296464e+01 1.231432e+01 -3.770142e+01 158 137 72
2.586681e+01 1.391830e+01 -4.345474e+01 138 138 78
3.809820e+01 1.170468e+01 -3.435294e+01 173 176 103
3.498190e+01 1.230767e+01 -3.673238e+01 192 190 126
3.436710e+01 1.248138e+01 -3.743423e+01 104 96 52
3.436710e+01 1.248138e+01 -3.743423e+01 104 96 52
3.747490e+01 1.255976e+01 -3.631458e+01 127 125 66
1.150909e+01 1.852850e+01 -5.299371e+01 242 229 198
2.796144e+00 1.596354e+01 -5.694920e+01 183 204 165
1.127117e+01 1.453514e+01 -5.104514e+01 222 222 126
3.646257e+01 1.040137e+01 -3.343584e+01 210 209 108
3.465189e+01 1.156241e+01 -3.660052e+01 212 201 140
1.533080e+01 1.484307e+01 -4.954843e+01 231 221 117
3.357772e+01 1.187722e+01 -3.672332e+01 189 191 91
2.595521e+01 1.321621e+01 -4.184833e+01 92 83 41
2.607073e+01 1.325093e+01 -4.201637e+01 92 83 41
3.783151e+01 1.140072e+01 -3.397413e+01 124 119 74
1.912622e+01 1.502979e+01 -4.825014e+01 238 233 150
3.193018e+01 1.325221e+01 -3.962705e+01 155 143 64
1.468088e+01 1.161857e+01 -4.507251e+01 146 142 72
1.258859e+01 1.423664e+01 -4.958880e+01 110 119 46
1.399775e+01 1.453125e+01 -4.976929e+01 161 160 70
-5.475098e+00 -3.412181e+00 5.857851e+00 156 171 178
-5.507549e+00 -3.416196e+00 5.990002e+00 156 171 178
-4.961114e+00 -1.134083e+00 6.591670e+00 253 253 253
-7.392685e+00 -4.110417e+00 4.976084e+00 13 13 13
-6.354690e+00 -3.650824e+00 5.636859e+00 72 77 73
-8.152905e+00 -4.554053e+00 4.609226e+00 228 232 227
-7.440168e+00 -3.743101e+00 5.112658e+00 230 232 235
-4.238908e+00 -1.183493e+00 6.425288e+00 162 161 169
-4.238908e+00 -1.183493e+00 6.425288e+00 162 161 169
-7.732517e+00 -3.571663e+00 5.109943e+00 93 93 90
-2.928044e+00 -2.803770e+00 6.424503e+00 164 94 70
-8.055319e+00 -4.514803e+00 4.495743e+00 86 79 92
-7.455541e+00 -4.407238e+00 4.892532e+00 54 59 91
-7.080818e+00 -3.874484e+00 5.162795e+00 31 40 66
-7.470898e+00 -3.139739e+00 5.138889e+00 21 28 79
-3.550845e+00 -1.908043e+00 6.694619e+00 184 189 205
-1.809517e+00 -1.418057e+00 4.788527e+00 65 67 86
-8.711242e+00 1.891935e+00 7.015515e-01 86 86 93
-7.480528e+00 -4.258370e+00 4.822050e+00 13 18 47
-3.618301e+00 -1.407501e+00 6.725321e+00 213 213 223
-8.168496e+00 1.372115e+00 2.268456e+00 85 90 110
-8.138626e+00 -4.545883e+00 4.493851e+00 235 238 233
-7.514832e+00 -4.463669e+00 4.869952e+00 243 248 249
-7.444778e+00 -4.333419e+00 4.797693e+00 232 233 233
-8.259486e+00 -3.343145e+00 4.937995e+00 3 2 16
-2.964684e+00 -3.231316e+00 6.155623e+00 180 190 189
-6.055353e+00 -2.236170e+00 6.307806e+00 111 121 152
-3.660833e+00 -1.020241e+00 6.448883e+00 61 70 112
1.068267e+01 2.463437e+01 -7.854611e+01 249 247 235
9.596757e+00 2.521109e+01 -8.024573e+01 166 167 161
9.596757e+00 2.521109e+01 -8.024573e+01 166 167 161
2.175215e+00 2.850313e+01 -8.388091e+01 198 197 185
-7.441009e+00 -3.748757e+00 5.144670e+00 209 215 219
-4.800494e+01 3.400663e+01 -1.148528e+02 255 254 255
-5.112750e+01 3.338148e+01 -1.088671e+02 188 185 158
7.807379e+00 2.594106e+01 -8.130728e+01 173 174 168
-4.817918e+01 3.580879e+01 -1.139094e+02 255 255 251
-4.879785e+01 3.890460e+01 -1.110200e+02 123 101 99
-5.314565e+01 3.718127e+01 -1.037486e+02 226 208 171
-5.776090e+01 2.749899e+01 -9.948058e+01 85 77 60
-5.838524e+01 2.779628e+01 -9.889927e+01 224 209 157
7.249586e+00 2.500784e+01 -8.114154e+01 246 243 234
-5.403328e+01 3.474239e+01 -1.039984e+02 215 190 127
-5.403328e+01 3.474239e+01 -1.039984e+02 215 190 127
-5.204275e+01 3.610694e+01 -1.075274e+02 255 255 255
1.888927e+01 1.083124e+01 -4.224065e+01 215 208 126
-5.779794e+01 2.866945e+01 -9.769503e+01 221 198 154
-5.378047e+01 3.119777e+01 -1.054765e+02 186 160 132
-5.306580e+01 3.164033e+01 -1.062707e+02 238 217 188
-5.835723e+01 3.004822e+01 -9.744855e+01 131 117 95
-5.340465e+01 3.406029e+01 -1.054540e+02 136 117 100
-4.885079e+01 3.700849e+01 -1.112692e+02 123 105 90
-2.731421e+01 3.497638e+01 -1.029301e+02 246 244 231
-1.111485e+01 -3.412207e+00 3.154750e+00 60 60 59
1.280039e+01 9.667251e+00 -4.291776e+01 162 164 92
1.193704e+01 9.754767e+00 -4.285019e+01 149 168 83
-4.927577e+01 2.175451e+01 -8.483948e+01 182 165 108
1.500409e+01 1.427123e+01 -4.799966e+01 112 110 55
-4.951807e+01 2.996835e+01 -1.099379e+02 251 237 207
-4.961494e+01 3.174364e+01 -1.116159e+02 126 104 98
-4.961494e+01 3.174364e+01 -1.116159e+02 126 104 98
1.092646e+01 1.749429e+01 -5.338878e+01 251 252 246
-4.869000e+01 3.371500e+01 -1.126758e+02 127 102 96
-4.975931e+01 3.355078e+01 -1.108142e+02 254 225 193
-5.281182e+01 3.388352e+01 -1.056709e+02 249 223 196
-3.979609e+01 3.521478e+01 -1.090453e+02 191 187 175
-3.979609e+01 3.521478e+01 -1.090453e+02 191 187 175
-5.022599e+01 3.659941e+01 -1.093589e+02 231 202 178
-4.937238e+01 3.718223e+01 -1.109492e+02 243 229 201
-4.865517e+01 4.032889e+01 -1.118183e+02 138 123 124
-4.814297e+01 4.111459e+01 -1.118010e+02 254 255 252
1.695989e+01 9.201390e+00 -4.075174e+01 119 120 71
9.444620e+00 1.087877e+01 -4.570684e+01 117 112 51
7.374121e+00 1.217807e+01 -4.845213e+01 167 168 92
9.872519e+00 1.320897e+01 -4.922182e+01 214 213 131
8.931494e+00 1.407102e+01 -5.060868e+01 222 221 111
1.747549e+01 1.428204e+01 -4.781777e+01 232 228 148
2.923054e+01 1.301494e+01 -4.017787e+01 160 139 90
-5.308590e+01 2.998739e+01 -1.064705e+02 128 117 97
-5.292983e+01 2.985340e+01 -1.058661e+02 128 117 97
3.150306e+01 2.121118e+01 -6.677401e+01 249 249 239
-4.910583e+01 3.374981e+01 -1.120548e+02 246 230 201
-4.909595e+01 3.457340e+01 -1.119439e+02 212 191 165
-4.780141e+01 3.483935e+01 -1.127427e+02 255 255 251
-5.367393e+01 3.441775e+01 -1.045622e+02 232 212 169
-5.414249e+01 3.607575e+01 -1.030725e+02 218 207 141
-5.343282e+01 3.680094e+01 -1.032436e+02 213 196 161
-4.862602e+01 4.108366e+01 -1.115610e+02 159 141 139
-4.693743e+00 -1.375778e+00 6.541371e+00 254 253 246
-4.851472e+01 1.810129e+01 -7.846495e+01 253 224 159
1.571089e+01 1.052208e+01 -4.322539e+01 208 211 118
-5.472605e+01 2.126356e+01 -8.517707e+01 248 212 139
1.267409e+01 1.209586e+01 -4.627598e+01 153 125 83
1.728006e+01 1.194187e+01 -4.460222e+01 178 177 68
1.227754e+01 1.256017e+01 -4.717887e+01 234 228 117
-5.376064e+01 2.243392e+01 -8.681546e+01 177 202 118
-5.376064e+01 2.243392e+01 -8.681546e+01 177 202 118
2.466376e+01 1.232686e+01 -4.130988e+01 106 100 46
3.080818e+01 1.253088e+01 -3.884627e+01 210 189 119
-5.222767e+01 2.968969e+01 -1.068312e+02 99 101 92
-5.042568e+01 3.067561e+01 -1.101100e+02 110 99 84
-5.056262e+01 3.115888e+01 -1.098649e+02 114 102 93
-5.058433e+01 3.117369e+01 -1.099576e+02 114 102 93
-5.725014e+01 2.920455e+01 -1.000627e+02 200 183 124
-5.731436e+01 2.986128e+01 -9.994887e+01 230 212 151
-5.224542e+01 3.190930e+01 -1.070519e+02 233 236 239
-4.759826e+01 3.510069e+01 -1.139066e+02 201 198 181
-5.030556e+01 3.421383e+01 -1.096249e+02 128 108 94
-5.030556e+01 3.421383e+01 -1.096249e+02 128 108 94
-5.120968e+01 3.414520e+01 -1.083948e+02 228 222 193
-4.758097e+01 3.627643e+01 -1.137812e+02 204 199 189
-5.426991e+01 3.455949e+01 -1.067308e+02 172 139 115
-5.395546e+01 3.382905e+01 -1.033707e+02 171 146 109
-5.395546e+01 3.382905e+01 -1.033707e+02 171 146 109
-4.862683e+01 3.784159e+01 -1.119238e+02 249 225 205
-5.262167e+01 3.660320e+01 -1.058412e+02 142 134 136
-4.857365e+01 3.836896e+01 -1.116762e+02 229 204 185
-5.340451e+01 3.619442e+01 -1.035675e+02 200 185 148
-3.816269e+01 3.729316e+01 -1.069541e+02 237 239 218
-2.174792e+01 2.776331e+01 -7.130209e+01 246 241 222
-5.335355e+01 3.505159e+01 -9.225991e+01 236 220 168
-4.778244e+01 4.117093e+01 -1.124731e+02 175 173 158
1.549357e+01 8.387630e+00 -3.921394e+01 168 167 124
-5.433095e+01 1.714984e+01 -7.790462e+01 173 180 131
-5.344501e+01 1.790100e+01 -7.907791e+01 72 74 40
-5.000180e+01 1.775026e+01 -7.781079e+01 207 214 152
-5.000180e+01 1.775026e+01 -7.781079e+01 207 214 152
1.350033e+01 9.857380e+00 -4.279481e+01 216 223 115
-5.040535e+01 1.840944e+01 -7.854563e+01 208 213 154
-4.767413e+01 1.947729e+01 -8.005625e+01 213 224 171
-4.767413e+01 1.947729e+01 -8.005625e+01 213 224 171
7.651858e+00 1.197965e+01 -4.743074e+01 229 232 159
1.213817e+01 1.182689e+01 -4.592709e+01 223 231 125
-5.548403e+01 2.156965e+01 -8.589886e+01 105 116 63
-5.438466e+01 2.168596e+01 -8.557410e+01 178 194 136
1.654624e+01 1.217818e+01 -4.514136e+01 211 218 124
1.663533e+01 1.263565e+01 -4.618008e+01 103 95 48
1.558763e+01 1.292797e+01 -4.683582e+01 178 190 92
-4.792025e+01 2.386390e+01 -8.763659e+01 255 232 172
-4.986211e+01 3.141775e+01 -1.108752e+02 242 220 188
-5.525544e+01 2.978255e+01 -1.031996e+02 232 211 167
-4.961595e+01 3.241045e+01 -1.110510e+02 243 209 179
-4.998180e+01 3.217124e+01 -1.099894e+02 245 212 184
-5.115689e+01 3.252146e+01 -1.087748e+02 229 216 198
-4.839156e+01 3.375243e+01 -1.133356e+02 244 213 206
-5.770518e+01 3.023949e+01 -9.799591e+01 207 192 147
-4.802947e+01 3.431093e+01 -1.134163e+02 255 251 254
-5.307555e+01 3.256135e+01 -1.054421e+02 255 236 205
-5.228034e+01 3.292091e+01 -1.068469e+02 234 233 235
-5.113295e+01 3.334036e+01 -1.081209e+02 215 207 188
-5.142323e+01 3.370937e+01 -1.083036e+02 114 112 109
-4.845305e+01 3.502169e+01 -1.130290e+02 247 222 195
-5.003615e+01 3.427728e+01 -1.100500e+02 248 220 192
-5.234583e+01 3.352700e+01 -1.068308e+02 237 236 235
-5.303723e+01 3.331416e+01 -1.054817e+02 160 130 119
-5.063565e+01 3.459512e+01 -1.088399e+02 233 218 192
-5.063565e+01 3.459512e+01 -1.088399e+02 233 218 192
-4.853366e+01 3.663576e+01 -1.125241e+02 242 211 190
-5.327101e+01 3.459376e+01 -1.045498e+02 157 134 104
-5.040101e+01 3.593135e+01 -1.089197e+02 171 145 125
-5.248097e+01 3.603069e+01 -1.065218e+02 230 225 227
-5.254805e+01 3.591252e+01 -1.058003e+02 143 129 126
-5.339719e+01 3.593800e+01 -1.040299e+02 202 189 154
-4.210537e+01 3.767653e+01 -1.092276e+02 239 237 219
-4.127866e+01 3.775221e+01 -1.092484e+02 234 236 214
-5.263116e+01 3.716381e+01 -1.056036e+02 151 144 140
-4.905984e+01 4.061608e+01 -1.098979e+02 237 204 181
-2.246646e+01 2.858561e+01 -7.186534e+01 82 82 67
-5.206023e+01 1.807808e+01 -7.820602e+01 170 176 119
-5.035710e+01 1.809630e+01 -7.797538e+01 112 115 66
1.733538e+01 9.724934e+00 -4.156328e+01 145 133 86
1.062103e+01 1.059071e+01 -4.522424e+01 116 102 59
1.055240e+01 1.054946e+01 -4.501507e+01 116 102 59
1.150372e+01 1.063296e+01 -4.488455e+01 114 115 40
1.450216e+01 1.041372e+01 -4.364727e+01 160 158 100
2.115035e+01 9.740397e+00 -3.988255e+01 201 194 128
1.319809e+01 1.085567e+01 -4.438526e+01 235 228 159
1.513444e+01 1.109776e+01 -4.443046e+01 235 223 150
1.427719e+01 1.133772e+01 -4.518848e+01 184 170 102
1.738007e+01 1.097008e+01 -4.319942e+01 176 174 94
9.095422e+00 1.184247e+01 -4.737440e+01 165 148 71
1.911069e+01 1.081998e+01 -4.238449e+01 247 229 172
7.456460e+00 1.278637e+01 -4.929704e+01 222 217 156
-5.318674e+01 2.192781e+01 -8.635018e+01 187 200 132
1.136754e+01 1.253452e+01 -4.761397e+01 139 133 49
2.741703e+01 1.047381e+01 -3.753228e+01 142 127 72
-4.516839e+01 2.074380e+01 -8.034085e+01 232 212 157
8.702891e+00 1.322325e+01 -4.963053e+01 189 188 100
1.448567e+01 1.260316e+01 -4.628770e+01 252 232 172
-4.900664e+01 2.228316e+01 -8.535919e+01 244 222 159
-5.648802e+01 2.324351e+01 -8.859741e+01 209 219 134
-5.648802e+01 2.324351e+01 -8.859741e+01 209 219 134
1.505666e+01 1.275727e+01 -4.657859e+01 136 131 77
7.553241e+00 1.392459e+01 -5.121659e+01 97 96 47
-4.846633e+01 2.256890e+01 -8.519851e+01 219 216 149
1.812474e+01 1.290011e+01 -4.534772e+01 226 222 158
9.258348e+00 1.432295e+01 -5.094986e+01 113 89 27
2.009919e+01 1.374658e+01 -4.629235e+01 224 207 152
1.118788e+01 1.513532e+01 -5.196026e+01 214 209 140
1.912497e+01 1.405021e+01 -4.700977e+01 237 225 150
2.096328e+01 1.424599e+01 -4.626582e+01 133 149 46
2.096328e+01 1.424599e+01 -4.626582e+01 133 149 46
1.549640e+01 1.500986e+01 -4.951781e+01 178 172 80
1.701465e+01 1.507410e+01 -4.933473e+01 241 232 135
1.444663e+01 1.539809e+01 -5.053227e+01 248 250 146
-1.852667e+01 5.344410e+00 -5.639041e+00 76 102 126
-5.868577e+01 2.908049e+01 -9.799205e+01 222 210 163
-5.137625e+01 3.185410e+01 -1.087783e+02 120 118 114
-5.137625e+01 3.185410e+01 -1.087783e+02 120 118 114
-5.838386e+01 2.917653e+01 -9.693423e+01 219 196 154
-5.864815e+01 2.939572e+01 -9.650091e+01 227 207 154
-4.813039e+01 3.495437e+01 -1.136445e+02 251 244 236
-5.423499e+01 3.378744e+01 -1.044178e+02 235 215 155
-2.164448e+01 2.539556e+01 -7.178570e+01 208 205 189
-5.063190e+01 3.643174e+01 -1.085781e+02 144 131 112
-5.168540e+01 3.623384e+01 -1.077104e+02 224 235 227
-5.064745e+01 3.693070e+01 -1.083587e+02 140 127 108
-5.292587e+01 3.620787e+01 -1.049739e+02 229 215 180
-5.098662e+01 3.726695e+01 -1.077366e+02 238 228 203
-5.094848e+01 3.836674e+01 -1.084157e+02 238 220 196
-5.273806e+01 3.785532e+01 -1.056564e+02 156 150 145
-5.089758e+01 3.890943e+01 -1.079573e+02 239 220 200
-2.213841e+01 2.839618e+01 -7.137445e+01 94 90 81
4.091805e+01 2.221482e+01 -5.879193e+01 229 230 216
3.989911e+01 2.352436e+01 -6.018681e+01 144 151 151
4.209144e+01 1.889248e+01 -5.491091e+01 73 78 53
3.994466e+01 2.516047e+01 -5.958986e+01 147 152 150
4.104313e+01 2.665409e+01 -5.881390e+01 229 227 212
-8.769370e+00 -3.104272e+00 4.681972e+00 11 13 10
-2.785611e+01 3.073291e+01 -1.037008e+02 149 152 145
-2.125711e+01 2.850720e+01 -7.328199e+01 246 239 217
-7.716013e+00 -3.569071e+00 5.090273e+00 105 107 99
-2.614377e+01 1.784042e+01 -7.232410e+01 226 214 159
-2.648322e+01 2.028740e+01 -7.584082e+01 183 175 127
5.035033e+01 2.234363e+01 -5.339834e+01 167 168 162
3.036169e+00 3.155536e+01 -8.216421e+01 242 238 225
3.036169e+00 3.155536e+01 -8.216421e+01 242 238 225
3.458670e+01 7.935876e+00 -3.083850e+01 102 94 69
-2.751326e+01 2.020382e+01 -7.397964e+01 98 112 54
1.106259e+01 1.757647e+01 -5.391653e+01 251 249 236
1.177907e+01 1.796272e+01 -5.315032e+01 255 250 229
-2.837692e+01 3.210311e+01 -1.020664e+02 156 157 152
4.241353e+01 1.799457e+01 -5.342681e+01 56 60 40
3.068161e+01 2.422530e+01 -6.427281e+01 172 170 171
-2.233903e+01 2.856501e+01 -7.206859e+01 109 107 108
-3.437646e+01 4.112739e+01 -1.043318e+02 181 178 169
-2.685528e+01 1.821471e+01 -7.345271e+01 129 114 75
-2.784095e+01 1.797864e+01 -7.167280e+01 186 200 129
-2.315236e+01 1.923980e+01 -7.297345e+01 153 147 62
-2.102396e+01 2.041656e+01 -7.255287e+01 245 231 205
-1.966432e+01 2.047247e+01 -7.269664e+01 247 234 213
3.737673e+01 1.225252e+01 -3.566175e+01 205 207 119
4.132776e+01 1.741008e+01 -5.249153e+01 172 182 92
4.996873e+01 1.779479e+01 -5.274507e+01 134 142 83
4.187461e+01 1.913652e+01 -5.795286e+01 86 98 53
4.277914e+01 1.798678e+01 -5.307848e+01 92 94 54
4.189528e+01 1.819864e+01 -5.385748e+01 50 50 36
4.082484e+01 1.698541e+01 -4.726676e+01 233 230 213
4.224832e+01 1.915324e+01 -5.311050e+01 127 138 115
4.986414e+01 2.167193e+01 -5.397744e+01 173 172 171
-2.217726e+01 2.814473e+01 -7.270957e+01 114 102 94
-1.683432e+01 1.774878e-01 2.021645e+00 148 159 183
-2.808248e+01 1.732281e+01 -7.159295e+01 211 223 136
-2.646345e+01 1.828319e+01 -7.278060e+01 213 214 139
-2.632096e+01 1.934926e+01 -7.445877e+01 224 207 154
3.126865e+01 8.850969e+00 -3.379300e+01 105 101 55
2.886804e+01 9.392531e+00 -3.502170e+01 204 204 114
3.507455e+01 9.403368e+00 -3.347020e+01 178 188 92
-2.043380e+01 2.079637e+01 -7.244815e+01 252 251 232
-2.042115e+01 2.082400e+01 -7.264106e+01 252 251 232
3.708093e+01 1.078504e+01 -3.456160e+01 191 187 109
-2.340630e+01 2.761054e+01 -9.968465e+01 246 244 231
-2.571314e+01 3.037191e+01 -1.023624e+02 175 177 163
-2.131819e+01 2.299980e+01 -7.218465e+01 203 186 167
3.063591e+01 2.112970e+01 -6.645551e+01 250 248 238
-3.625981e+01 3.950214e+01 -1.063941e+02 181 178 169
-2.241272e+01 3.048975e+01 -7.123165e+01 222 209 166
-3.008544e+01 1.643276e+01 -7.155967e+01 45 41 37
-2.770830e+01 1.671543e+01 -7.170306e+01 251 211 160
-2.566476e+01 1.758415e+01 -7.255688e+01 148 146 81
-3.030849e+01 1.802140e+01 -7.230341e+01 115 118 68
-3.003357e+01 1.840623e+01 -7.262777e+01 201 211 120
-2.576972e+01 1.883199e+01 -7.346416e+01 176 179 95
-2.758772e+01 1.982039e+01 -7.436588e+01 202 229 110
3.433947e+01 9.377329e+00 -3.323539e+01 151 126 69
3.433947e+01 9.377329e+00 -3.323539e+01 151 126 69
-2.293813e+01 2.039742e+01 -7.490195e+01 230 227 153
-2.248313e+01 2.040465e+01 -7.476053e+01 204 207 123
2.521315e+01 1.220207e+01 -4.058176e+01 159 150 94
-2.001820e+01 2.317639e+01 -7.281279e+01 248 246 225
4.159203e+01 1.861797e+01 -5.449191e+01 53 53 39
4.190319e+01 1.931948e+01 -5.683536e+01 237 235 215
-2.169783e+01 2.933656e+01 -7.208955e+01 255 254 253
-2.183799e+01 3.049576e+01 -7.193233e+01 255 253 231
-1.669888e+01 5.692438e-02 2.042133e+00 233 248 250
-2.928022e+01 1.732166e+01 -7.047045e+01 96 116 49
-2.745253e+01 1.840145e+01 -7.310176e+01 79 99 22
-2.799851e+01 1.883785e+01 -7.237932e+01 205 225 146
-2.947194e+01 1.915540e+01 -7.269284e+01 190 213 126
-2.789283e+01 1.948112e+01 -7.313416e+01 231 253 184
3.702865e+01 9.452408e+00 -3.188470e+01 125 120 52
-2.139661e+01 2.035406e+01 -7.319715e+01 91 89 64
-2.139661e+01 2.035406e+01 -7.319715e+01 91 89 64
-2.023594e+01 2.041637e+01 -7.269547e+01 232 227 192
-2.131803e+01 2.090883e+01 -7.275746e+01 91 89 86
3.643857e+01 1.039556e+01 -3.340899e+01 210 209 108
3.643857e+01 1.039556e+01 -3.340899e+01 210 209 108
-2.310179e+01 2.735006e+01 -9.962070e+01 201 204 169
-2.310179e+01 2.735006e+01 -9.962070e+01 201 204 169
3.592734e+01 1.052231e+01 -3.380922e+01 109 96 43
-2.129368e+01 2.142963e+01 -7.287721e+01 87 80 70
-2.059392e+01 2.218374e+01 -7.203505e+01 255 254 246
-2.062640e+01 2.484879e+01 -7.199060e+01 255 254 244
-2.117199e+01 2.710059e+01 -7.145997e+01 255 254 245
1.423936e+01 3.118753e+01 -7.658581e+01 142 134 135
-2.211800e+01 3.052995e+01 -7.128560e+01 120 109 83
-3.039772e+01 1.705279e+01 -7.080411e+01 55 73 15
-2.811204e+01 1.758715e+01 -7.131199e+01 84 89 30
-2.811204e+01 1.758715e+01 -7.131199e+01 84 89 30
-2.564590e+01 1.859841e+01 -7.351663e+01 236 224 174
-2.888468e+01 1.921105e+01 -7.310834e+01 83 96 46
-2.184105e+01 1.903048e+01 -7.175449e+01 229 234 129
3.561852e+01 8.752670e+00 -3.132079e+01 145 133 73
-2.364832e+01 1.982966e+01 -7.365067e+01 226 226 139
2.564017e+01 1.098796e+01 -3.916970e+01 190 192 114
-2.180032e+01 2.023884e+01 -7.328255e+01 225 218 184
2.909062e+01 1.059708e+01 -3.680078e+01 135 126 44
3.239050e+01 1.050357e+01 -3.550076e+01 131 144 67
3.282208e+01 1.048199e+01 -3.512467e+01 105 99 40
2.643630e+01 1.192378e+01 -4.005127e+01 109 118 46
2.538992e+01 1.202701e+01 -4.038764e+01 123 120 58
-2.129576e+01 2.174305e+01 -7.259751e+01 186 181 160
3.572690e+01 1.181125e+01 -3.607913e+01 146 131 74
2.835603e+01 1.286966e+01 -4.016748e+01 136 128 51
3.708115e+01 1.149521e+01 -3.459433e+01 186 178 109
3.615663e+01 1.187059e+01 -3.530792e+01 161 172 85
3.962304e+01 1.634334e+01 -4.598061e+01 93 103 70
4.172678e+01 1.926545e+01 -5.632206e+01 240 238 221
4.223699e+01 1.862936e+01 -5.317178e+01 179 190 131
4.262900e+01 1.862230e+01 -5.302188e+01 212 218 180
4.262115e+01 1.876868e+01 -5.329782e+01 77 82 57
4.262115e+01 1.876868e+01 -5.329782e+01 77 82 57
-2.211275e+01 2.994541e+01 -7.160668e+01 240 226 198
1.380026e+01 3.103921e+01 -7.629234e+01 132 125 133
-3.560657e+00 -3.386868e+00 5.847982e+00 170 184 185
1.904305e+01 -1.954327e+00 -1.939884e+02 12 14 13
-3.490717e+01 3.319337e+01 -1.065045e+02 178 178 165
1.455290e+01 8.087832e+00 -3.968841e+01 207 212 215
-5.151178e+01 3.870910e+01 -1.076729e+02 149 147 138
-7.948121e+00 -3.879194e+00 4.943107e+00 116 117 112
-8.718312e+00 -3.430270e+00 4.677821e+00 155 166 173
-2.280645e+01 -1.749125e+00 -1.587239e+00 255 255 255
-2.304767e+01 -1.333022e+00 -1.662519e+00 79 80 82
6.018020e+00 1.287563e+01 -5.093985e+01 235 234 138
1.466234e+01 1.522152e+01 -4.998123e+01 230 236 115
-4.987424e+01 3.509642e+01 -1.101469e+02 232 205 173
-4.987424e+01 3.509642e+01 -1.101469e+02 232 205 173
-2.325715e+01 -2.958335e+00 -2.158881e+00 208 208 206
1.299824e+01 8.059662e+00 -1.991448e+02 17 16 16
-2.243198e+01 2.283319e+00 -8.302501e-01 231 238 244
5.041589e+00 1.257593e+01 -5.047931e+01 177 177 113
5.043601e+00 1.257340e+01 -5.049015e+01 177 177 113
1.493239e+01 1.218870e+01 -4.622513e+01 249 239 162
1.459765e+01 1.387028e+01 -4.827786e+01 175 192 86
1.454002e+01 1.380308e+01 -4.803804e+01 175 192 86
1.021501e+01 1.480701e+01 -5.129917e+01 231 233 129
1.235357e+01 1.570047e+01 -5.270186e+01 161 158 101
-3.435579e+00 2.541888e+01 -8.875092e+01 250 248 235
3.198545e+00 2.487782e+01 -8.548286e+01 250 250 236
5.414226e+00 2.416716e+01 -8.232129e+01 255 254 251
-2.012060e+01 3.254132e+01 -9.707098e+01 247 245 229
-5.332661e+01 3.619155e+01 -1.048934e+02 227 210 165
-4.824735e+01 4.009275e+01 -1.127540e+02 255 255 255
-2.282179e+01 -3.280654e+00 -1.962732e+00 204 210 210
-2.457479e+01 -2.702040e+00 -2.478181e+00 134 134 129
-1.108214e+01 -3.046868e+00 3.754437e+00 147 162 164
-2.236762e+01 -1.904601e+00 -1.422359e+00 200 209 212
1.224635e+01 9.918320e+00 -4.365691e+01 158 172 91
7.904502e+00 1.146357e+01 -4.763533e+01 123 131 77
7.904502e+00 1.146357e+01 -4.763533e+01 123 131 77
4.837403e+00 1.355901e+01 -5.211593e+01 157 149 86
1.745833e+01 1.310738e+01 -4.626146e+01 198 209 113
1.526937e+01 1.392220e+01 -4.824456e+01 216 215 119
1.119609e+01 1.610494e+01 -5.351338e+01 223 206 136
-4.974322e+01 3.353358e+01 -1.107616e+02 255 227 197
-2.020328e+01 2.413098e+01 -7.196220e+01 254 254 253
-1.993298e+01 3.203063e+01 -9.740243e+01 179 183 166
-4.877480e+01 3.696276e+01 -1.110384e+02 115 96 84
1.106486e+01 2.018547e+01 -5.294902e+01 127 121 125
1.106486e+01 2.018547e+01 -5.294902e+01 127 121 125
-4.813609e+01 3.847706e+01 -1.128408e+02 254 255 255
1.055034e+01 8.765808e+00 -4.219501e+01 222 226 220
1.147883e+01 8.796813e+00 -4.207668e+01 237 230 228
1.483151e+01 8.840319e+00 -4.107265e+01 114 111 76
1.144470e+01 9.109883e+00 -4.248107e+01 176 179 115
1.115459e+01 9.406027e+00 -4.308071e+01 222 198 139
1.255304e+01 1.053647e+01 -4.440699e+01 172 175 99
1.287182e+01 1.063839e+01 -4.447541e+01 225 218 141
1.331088e+00 1.227669e+01 -5.193038e+01 254 233 183
5.874941e+00 1.175686e+01 -4.901903e+01 225 215 128
-9.647935e-01 1.282289e+01 -5.275002e+01 195 189 152
-6.995913e+01 2.368873e+01 -9.071960e+01 138 126 100
-6.794895e+01 2.350328e+01 -8.973854e+01 163 150 117
1.298178e+01 1.445207e+01 -4.971093e+01 166 189 101
1.630403e+01 1.429330e+01 -4.821152e+01 210 199 122
1.535920e+01 1.446920e+01 -4.884167e+01 104 98 47
9.518824e+00 1.589997e+01 -5.374866e+01 176 189 104
-5.795497e+01 3.066828e+01 -9.678253e+01 217 199 164
-5.752916e+01 3.165380e+01 -9.739238e+01 212 179 139
-5.310677e+01 3.525724e+01 -1.046125e+02 255 236 206
-5.728428e+01 3.390952e+01 -9.678166e+01 237 226 170
-5.357337e+01 3.568362e+01 -1.035515e+02 126 113 91
-5.086470e+01 3.670686e+01 -1.075424e+02 237 229 196
1.197278e+01 8.738591e+00 -4.170469e+01 236 239 239
8.752195e+00 9.330492e+00 -4.409883e+01 151 151 123
1.071074e+01 9.091603e+00 -4.276437e+01 100 98 78
1.440257e+01 9.047752e+00 -4.148825e+01 223 218 153
1.658426e+01 9.507964e+00 -4.151039e+01 222 218 144
5.503373e+00 1.125308e+01 -4.878275e+01 229 224 131
5.503373e+00 1.125308e+01 -4.878275e+01 229 224 131
1.282646e+01 1.065399e+01 -4.436941e+01 221 212 134
7.764594e+00 1.176539e+01 -4.817738e+01 206 217 131
6.777045e+00 1.251092e+01 -4.954835e+01 177 170 109
-6.370883e+01 2.334415e+01 -8.847011e+01 110 107 102
1.050522e+01 1.344333e+01 -4.920793e+01 177 161 95
1.318814e+01 1.315205e+01 -4.776048e+01 206 219 129
3.295196e+00 1.632013e+01 -5.699383e+01 228 227 147
1.609823e+01 1.524219e+01 -4.961680e+01 238 238 129
3.707529e+00 2.460571e+01 -8.472798e+01 164 164 160
3.707529e+00 2.460571e+01 -8.472798e+01 164 164 160
-4.870152e+01 3.506719e+01 -1.119080e+02 124 97 82
-5.006983e+01 3.482310e+01 -1.096441e+02 247 219 195
-5.359345e+01 3.509385e+01 -1.032323e+02 222 198 162
-4.969673e+01 4.100929e+01 -1.091988e+02 244 206 180
-2.499383e+01 -5.702884e-01 -2.186717e+00 20 28 18
9.775789e+00 9.483466e+00 -4.377825e+01 147 130 86
-8.524113e+00 1.930182e+00 4.019012e-01 50 54 65
6.262666e+00 1.074265e+01 -4.713798e+01 170 182 82
9.134814e+00 1.095055e+01 -4.674300e+01 140 124 75
1.227727e+01 1.041110e+01 -4.380690e+01 161 158 91
1.204577e+01 1.049291e+01 -4.433232e+01 135 146 60
5.986897e+00 1.144523e+01 -4.850925e+01 118 116 50
2.539781e+00 1.195821e+01 -5.076475e+01 239 226 169
2.539781e+00 1.195821e+01 -5.076475e+01 239 226 169
-2.661850e-01 1.284162e+01 -5.272748e+01 62 65 36
-2.669046e-01 1.285142e+01 -5.272512e+01 62 65 36
-6.972273e-01 1.310124e+01 -5.277081e+01 52 39 34
1.282420e+01 1.155848e+01 -4.576783e+01 145 138 72
1.437771e+01 1.146912e+01 -4.521961e+01 224 213 125
1.351924e+01 1.153457e+01 -4.505713e+01 236 231 147
9.455233e+00 1.232754e+01 -4.793954e+01 217 219 140
5.872197e+00 1.283509e+01 -5.029634e+01 249 252 150
-4.571385e-02 1.345474e+01 -5.288533e+01 211 223 162
7.794199e+00 1.294169e+01 -4.969427e+01 135 146 78
6.739246e+00 1.333409e+01 -5.062269e+01 236 242 115
-6.382929e+01 2.361185e+01 -8.977031e+01 100 86 84
-6.346554e+01 2.354187e+01 -8.849699e+01 219 212 175
6.237574e+00 1.395035e+01 -5.191512e+01 218 220 117
-6.338262e+01 2.387338e+01 -8.810989e+01 232 219 187
1.557518e+01 1.294352e+01 -4.683662e+01 157 173 81
6.997355e+00 1.405690e+01 -5.182151e+01 190 178 102
3.750589e+00 1.458856e+01 -5.396978e+01 165 169 94
1.696655e+01 1.309979e+01 -4.646302e+01 131 128 60
1.679579e+01 1.340227e+01 -4.703322e+01 247 234 166
4.602340e+00 1.598691e+01 -5.491010e+01 229 239 154
1.507486e+01 1.477846e+01 -4.978903e+01 231 225 113
1.559625e+01 1.487531e+01 -4.961618e+01 223 219 112
3.526734e+00 2.478476e+01 -8.419669e+01 251 248 241
3.487860e+00 2.468756e+01 -8.388548e+01 251 248 241
-5.755147e+01 3.074878e+01 -9.749022e+01 238 217 172
-5.256850e+01 3.297532e+01 -1.058747e+02 254 243 218
-4.827413e+01 3.449394e+01 -1.121961e+02 237 210 187
-5.234836e+01 3.379525e+01 -1.067503e+02 236 237 231
-5.234836e+01 3.379525e+01 -1.067503e+02 236 237 231
-5.333229e+01 3.328227e+01 -1.045534e+02 250 232 201
1.136464e+01 1.825602e+01 -5.286112e+01 127 122 85
-5.224280e+01 3.400271e+01 -1.062902e+02 237 242 239
-5.063001e+01 3.766721e+01 -1.078054e+02 235 228 201
-5.234386e+01 3.736027e+01 -1.054613e+02 250 252 250
-6.693534e+01 3.394659e+01 -8.622033e+01 146 93 80
-7.444862e+00 -4.333965e+00 4.807598e+00 232 233 233
4.750691e+00 -2.565665e+00 -3.832348e+00 189 194 186
-2.249563e+01 -2.055467e+00 -1.481094e+00 142 141 126
1.552949e+01 7.399273e+00 -3.849595e+01 144 132 131
-1.217177e+01 1.058377e+00 3.435203e+00 190 209 234
1.096511e+01 9.059118e+00 -4.284831e+01 94 98 80
1.299944e+01 8.750790e+00 -4.107470e+01 144 143 109
6.307746e+00 1.054091e+01 -4.699663e+01 252 241 177
5.164341e+00 1.132642e+01 -4.878285e+01 253 242 176
5.091125e+00 1.158493e+01 -4.870016e+01 228 230 133
1.213511e+01 1.076715e+01 -4.467194e+01 222 224 126
9.001450e+00 1.125496e+01 -4.629767e+01 222 217 127
1.141108e+01 1.109024e+01 -4.533841e+01 232 227 120
8.755333e-01 1.267792e+01 -5.274645e+01 142 98 61
6.636121e+00 1.196872e+01 -4.889320e+01 254 249 185
-6.063671e-01 1.283233e+01 -5.267402e+01 67 63 49
-4.628550e-01 1.289285e+01 -5.246711e+01 199 203 157
-4.605062e-01 1.289647e+01 -5.248912e+01 199 203 157
-1.667125e-01 1.326709e+01 -5.276409e+01 45 50 23
1.174677e+00 1.390838e+01 -5.448313e+01 255 251 187
1.098649e+01 1.254443e+01 -4.744291e+01 224 218 118
6.468005e+00 1.348255e+01 -5.106965e+01 169 174 63
-6.509937e+01 2.332506e+01 -8.795453e+01 92 89 76
5.729283e+00 1.403083e+01 -5.259156e+01 231 228 125
-6.369613e+01 2.371892e+01 -8.818110e+01 119 115 107
3.415968e+00 1.449871e+01 -5.405276e+01 192 198 101
1.301074e+00 1.504148e+01 -5.636141e+01 230 230 153
7.615367e+00 1.400307e+01 -5.153712e+01 95 98 40
1.356883e+01 1.331625e+01 -4.803467e+01 212 213 138
9.681231e+00 1.381057e+01 -5.002245e+01 220 207 138
1.227053e+01 1.327047e+01 -4.744300e+01 169 169 85
1.846160e-01 1.571677e+01 -5.750488e+01 236 230 162
1.710797e+01 1.311554e+01 -4.631747e+01 222 225 140
1.704959e+01 1.308427e+01 -4.610925e+01 222 225 140
2.293982e+00 1.562587e+01 -5.621185e+01 222 225 142
5.078880e+00 1.542854e+01 -5.472271e+01 245 241 138
1.395526e+01 1.418962e+01 -4.911072e+01 225 221 121
-9.051950e-01 1.662427e+01 -5.933157e+01 194 186 110
1.069075e+01 1.508977e+01 -5.194569e+01 225 232 119
-6.062191e+01 2.624037e+01 -9.246958e+01 255 235 204
-6.062191e+01 2.624037e+01 -9.246958e+01 255 235 204
3.857058e+00 1.648679e+01 -5.684814e+01 160 153 78
3.857058e+00 1.648679e+01 -5.684814e+01 160 153 78
1.007528e+01 1.643233e+01 -5.462077e+01 227 228 139
9.785772e+00 1.654686e+01 -5.507475e+01 213 213 120
-5.803146e+01 2.851271e+01 -9.721986e+01 234 222 170
1.177959e+01 1.678426e+01 -5.330360e+01 255 255 222
-5.255900e+01 3.250340e+01 -1.061683e+02 248 229 210
-5.800328e+01 3.061462e+01 -9.644669e+01 234 210 175
-5.795070e+01 3.085830e+01 -9.615769e+01 233 218 177
-5.790793e+01 3.107947e+01 -9.706410e+01 227 203 170
-5.262074e+01 3.417011e+01 -1.058385e+02 255 242 222
-5.302769e+01 3.412970e+01 -1.040823e+02 157 142 106
-5.481337e+01 3.416575e+01 -1.013348e+02 226 215 153
-5.218719e+01 3.536152e+01 -1.056351e+02 248 251 251
-5.857441e+01 3.285128e+01 -9.498560e+01 255 238 202
-5.857441e+01 3.285128e+01 -9.498560e+01 255 238 202
-5.011997e+01 3.876243e+01 -1.087535e+02 254 226 209
-5.194970e+01 3.803982e+01 -1.053963e+02 238 238 230
-5.024949e+01 4.023671e+01 -1.084657e+02 248 219 194
-6.416137e+01 3.425992e+01 -8.643445e+01 204 186 167
-3.743848e+00 -1.825137e+00 5.294950e+00 255 255 255
-9.889744e+00 -2.337541e+00 3.537420e+00 153 168 175
