ply
format ascii 1.0
element vertex 917
property float x
property float y
property float z
property uchar diffuse_red
property uchar diffuse_green
property uchar diffuse_blue
end_header
9.505660e+00 1.219302e+01 -4.719949e+01 217 219 140
5.951624e+00 1.264519e+01 -4.934550e+01 249 252 150
1.497666e-01 1.325018e+01 -5.191486e+01 211 223 162
7.870012e+00 1.279087e+01 -4.890301e+01 135 146 78
6.813842e+00 1.315755e+01 -4.973482e+01 236 242 115
-6.119676e+01 2.253378e+01 -8.575302e+01 100 86 84
-6.086072e+01 2.247015e+01 -8.454781e+01 219 212 175
6.340999e+00 1.377957e+01 -5.107494e+01 218 220 117
-6.085657e+01 2.283097e+01 -8.436273e+01 232 219 187
1.556508e+01 1.284358e+01 -4.624491e+01 157 173 81
7.061002e+00 1.385505e+01 -5.086233e+01 190 178 102
3.902136e+00 1.440439e+01 -5.309748e+01 165 169 94
1.694657e+01 1.300618e+01 -4.590881e+01 131 128 60
1.677665e+01 1.330586e+01 -4.646583e+01 247 234 166
4.739994e+00 1.578389e+01 -5.402842e+01 229 239 154
1.505973e+01 1.464179e+01 -4.910439e+01 231 225 113
1.557960e+01 1.474567e+01 -4.895798e+01 223 219 112
3.640890e+00 2.427248e+01 -8.205996e+01 251 248 241
3.613882e+00 2.421130e+01 -8.187095e+01 251 248 241
-5.521979e+01 2.945356e+01 -9.330223e+01 238 217 172
-5.044586e+01 3.163480e+01 -1.014634e+02 254 243 218
-4.628187e+01 3.310920e+01 -1.074838e+02 237 210 187
-5.017948e+01 3.238725e+01 -1.021349e+02 236 237 231
-5.017948e+01 3.238725e+01 -1.021349e+02 236 237 231
-5.116050e+01 3.191257e+01 -1.001230e+02 250 232 201
1.137746e+01 1.803104e+01 -5.201888e+01 127 122 85
-5.011213e+01 3.261831e+01 -1.018006e+02 237 242 239
-4.857256e+01 3.615707e+01 -1.032642e+02 235 228 201
-5.022112e+01 3.584640e+01 -1.009951e+02 250 252 250
-6.420587e+01 3.245164e+01 -8.231096e+01 146 93 80
-7.208100e+00 -4.345908e+00 4.710833e+00 232 233 233
4.860714e+00 -2.548858e+00 -3.889736e+00 189 194 186
-2.196532e+01 -2.135342e+00 -1.397375e+00 142 141 126
1.554405e+01 7.380861e+00 -3.811162e+01 144 132 131
-1.186890e+01 9.503852e-01 3.380144e+00 190 209 234
1.099689e+01 8.979099e+00 -4.222940e+01 94 98 80
1.302731e+01 8.697564e+00 -4.057970e+01 144 143 109
6.388806e+00 1.040104e+01 -4.617004e+01 252 241 177
5.256417e+00 1.115849e+01 -4.785657e+01 253 242 176
5.182257e+00 1.141127e+01 -4.777042e+01 228 230 133
1.215854e+01 1.067406e+01 -4.405583e+01 222 224 126
9.058214e+00 1.113463e+01 -4.558640e+01 222 217 127
1.143996e+01 1.098673e+01 -4.468943e+01 232 227 120
1.037478e+00 1.244722e+01 -5.160948e+01 142 98 61
6.710906e+00 1.180638e+01 -4.802331e+01 254 249 185
-4.189143e-01 1.258662e+01 -5.149966e+01 67 63 49
-2.766281e-01 1.265197e+01 -5.132339e+01 199 203 157
-2.615729e-01 1.268403e+01 -5.146802e+01 199 203 157
1.435512e-03 1.301742e+01 -5.150928e+01 45 50 23
1.332647e+00 1.366111e+01 -5.332352e+01 255 251 187
1.101728e+01 1.241480e+01 -4.673659e+01 224 218 118
6.566485e+00 1.331914e+01 -5.024475e+01 169 174 63
-6.239449e+01 2.223915e+01 -8.395002e+01 92 89 76
5.814291e+00 1.382306e+01 -5.160047e+01 231 228 125
-6.107916e+01 2.263677e+01 -8.423379e+01 119 115 107
3.573508e+00 1.431510e+01 -5.317777e+01 192 198 101
1.452110e+00 1.476264e+01 -5.511056e+01 230 230 153
7.673574e+00 1.381154e+01 -5.061423e+01 95 98 40
1.356785e+01 1.318933e+01 -4.735227e+01 212 213 138
9.728835e+00 1.365450e+01 -4.924395e+01 220 207 138
1.228591e+01 1.313705e+01 -4.675895e+01 169 169 85
3.563781e-01 1.541316e+01 -5.619176e+01 236 230 162
1.708822e+01 1.302603e+01 -4.577376e+01 222 225 140
1.702961e+01 1.299161e+01 -4.556537e+01 222 225 140
2.477461e+00 1.542701e+01 -5.531534e+01 222 225 142
5.207625e+00 1.523513e+01 -5.383924e+01 245 241 138
1.394684e+01 1.405018e+01 -4.840500e+01 225 221 121
-7.116012e-01 1.629000e+01 -5.793468e+01 194 186 110
1.072400e+01 1.491896e+01 -5.113788e+01 225 232 119
-5.815828e+01 2.509472e+01 -8.844231e+01 255 235 204
-5.815828e+01 2.509472e+01 -8.844231e+01 255 235 204
4.012633e+00 1.627803e+01 -5.593903e+01 160 153 78
4.012633e+00 1.627803e+01 -5.593903e+01 160 153 78
1.011869e+01 1.623861e+01 -5.375389e+01 227 228 139
9.835184e+00 1.635136e+01 -5.420087e+01 213 213 120
-5.566898e+01 2.729591e+01 -9.302912e+01 234 222 170
1.178790e+01 1.658446e+01 -5.244891e+01 255 255 222
-5.037581e+01 3.115005e+01 -1.015660e+02 248 229 210
-5.565484e+01 2.932045e+01 -9.229256e+01 234 210 175
-5.560788e+01 2.955584e+01 -9.201892e+01 233 218 177
-5.556025e+01 2.976684e+01 -9.287991e+01 227 203 170
-5.041709e+01 3.272253e+01 -1.011691e+02 255 242 222
-5.087853e+01 3.273965e+01 -9.969008e+01 157 142 106
-5.259604e+01 3.275965e+01 -9.702287e+01 226 215 153
-5.006667e+01 3.392653e+01 -1.011735e+02 248 251 251
-5.619683e+01 3.145719e+01 -9.083737e+01 255 238 202
-5.622325e+01 3.147688e+01 -9.090615e+01 255 238 202
-4.808181e+01 3.720972e+01 -1.041750e+02 254 226 209
-4.984774e+01 3.650432e+01 -1.009415e+02 238 238 230
-4.820977e+01 3.862579e+01 -1.038899e+02 248 219 194
-6.146706e+01 3.269059e+01 -8.232897e+01 204 186 167
-3.581105e+00 -1.874295e+00 5.181561e+00 255 255 255
-9.610271e+00 -2.388024e+00 3.477826e+00 153 168 175
-1.496134e+01 4.529006e+00 -4.911253e+00 181 200 154
-4.201966e+00 -1.700557e+00 6.326993e+00 239 146 83
-1.111379e+01 5.983249e-01 3.871722e+00 253 253 254
-8.155121e+00 -2.760711e+00 4.851579e+00 26 28 29
-7.228624e+00 -3.404213e+00 5.103640e+00 182 192 199
-7.208848e+00 -3.403994e+00 5.081348e+00 182 192 199
-7.337631e+00 -4.518675e+00 4.861632e+00 135 143 149
2.542173e+01 1.253998e+01 -4.128522e+01 187 176 108
-8.078916e+00 -3.559459e+00 4.831526e+00 172 183 187
-8.078916e+00 -3.559459e+00 4.831526e+00 172 183 187
-6.933054e+00 -3.336915e+00 5.297975e+00 187 194 203
-3.856208e+00 -1.792180e+00 6.431389e+00 254 255 253
-1.565114e+01 1.350249e-01 2.263625e+00 241 250 254
-7.313776e+00 -2.788705e+00 5.237024e+00 217 224 223
-7.696674e+00 -3.108081e+00 5.043605e+00 200 210 219
1.550650e+01 -4.091171e-01 -9.647170e+00 121 123 116
2.468288e+01 1.106397e+01 -3.947455e+01 91 89 58
-1.676991e+01 -1.340997e+00 1.613251e+00 192 211 223
-1.078380e+01 -1.891666e+00 4.104991e+00 210 223 221
-1.075378e+01 -1.849357e+00 3.971551e+00 19 29 46
1.382395e+01 -1.471024e+00 -6.279582e+00 205 213 204
-6.313511e+00 -4.479818e+00 5.266717e+00 72 73 72
-7.205032e+00 -2.730876e+00 5.283778e+00 137 144 160
2.587533e+01 1.225104e+01 -4.014131e+01 147 142 77
-1.713353e+01 3.713776e+00 8.253520e-01 92 117 132
7.211711e+00 1.341094e+01 -5.024849e+01 207 198 78
-8.198375e+00 -2.500435e+00 4.923765e+00 150 146 136
1.358768e+01 1.047873e+01 -4.385381e+01 139 122 63
1.319466e+01 1.302668e+01 -4.708594e+01 202 212 118
1.466252e+01 1.260642e+01 -4.618355e+01 227 199 135
6.347546e+00 1.286214e+01 -4.970308e+01 98 88 27
6.768487e+00 1.318398e+01 -4.984695e+01 216 212 92
6.768487e+00 1.318398e+01 -4.984695e+01 216 212 92
-6.837312e+00 -3.946643e+00 5.143667e+00 77 78 79
1.418873e+01 9.312835e+00 -4.161789e+01 116 98 34
1.507309e+01 1.441758e+01 -4.853879e+01 79 61 16
-7.467478e+00 -4.696521e+00 4.706221e+00 161 154 146
-8.031584e+00 -4.661134e+00 4.435046e+00 169 158 150
-8.188044e+00 -4.596852e+00 4.389552e+00 160 152 139
-8.567237e+00 -4.293298e+00 4.290874e+00 183 176 169
-7.822309e+00 -2.475357e+00 5.096834e+00 145 136 130
1.787828e+01 1.407688e+01 -4.679057e+01 190 162 105
-7.118504e+00 -2.827666e+00 5.330796e+00 154 150 144
-2.562980e+00 8.434721e-01 2.279406e+00 126 115 113
-4.897979e+01 2.999712e+01 -1.043436e+02 238 226 201
-2.695142e+00 8.287646e-01 2.377131e+00 133 117 120
-5.152194e+01 3.014572e+01 -1.000203e+02 247 216 175
-4.849676e+01 3.133657e+01 -1.046830e+02 230 212 192
-4.920838e+01 3.109465e+01 -1.037877e+02 127 125 121
-4.623089e+01 3.334196e+01 -1.084227e+02 131 116 109
-4.928197e+01 3.349702e+01 -1.031777e+02 124 124 116
-4.928197e+01 3.349702e+01 -1.031777e+02 124 124 116
-2.535730e+01 8.060459e-01 -3.021430e+00 167 191 210
-2.331659e+01 -2.208343e+00 -2.076610e+00 171 179 188
-1.933502e+01 1.959962e+01 -7.000220e+01 128 128 95
-1.033839e+01 -3.143305e+00 3.847565e+00 145 158 171
-2.034445e+01 -2.244106e+00 -5.047791e-01 114 130 141
-5.237721e+01 3.520526e+01 -9.668940e+01 169 157 124
-5.237721e+01 3.520526e+01 -9.668940e+01 169 157 124
-5.197959e+01 3.652986e+01 -9.734767e+01 218 210 167
-2.030953e+01 1.731369e+01 -6.788828e+01 212 218 183
-2.031160e+01 1.731423e+01 -6.788953e+01 212 218 183
-5.696506e+01 3.036386e+01 -9.039795e+01 250 231 198
-4.695105e+01 3.811544e+01 -1.059995e+02 246 221 191
-4.918957e+01 3.627293e+01 -1.025386e+02 225 215 194
-4.618686e+01 3.154882e+01 -1.089047e+02 137 122 115
-5.285393e+01 3.151767e+01 -9.711752e+01 237 204 170
-4.857262e+01 3.437060e+01 -1.038272e+02 228 216 189
-4.025558e+01 3.596728e+01 -1.059971e+02 207 204 185
-4.883218e+01 3.742604e+01 -1.027225e+02 165 150 130
-7.709344e+00 -3.374551e+00 4.829607e+00 174 183 189
3.778901e+01 9.006966e+00 -3.066278e+01 168 164 87
-2.301499e+01 -1.480430e+00 -1.798031e+00 30 27 28
-2.202703e+01 2.062922e+00 -9.052955e-01 203 225 246
-2.204793e+01 -2.457824e+00 -1.501749e+00 241 240 241
3.459618e+01 1.416126e+01 -4.151075e+01 192 192 114
-6.907385e+00 -4.004927e+00 5.132121e+00 146 154 158
-7.483229e+00 -3.594515e+00 5.017474e+00 99 100 94
-2.733835e+01 2.450104e-01 -3.357630e+00 118 137 153
4.310754e+01 8.698090e+00 -2.823046e+01 140 151 80
4.194973e+01 1.986016e+01 -5.589650e+01 225 219 203
4.396019e+01 1.762993e+01 -3.281728e+01 84 83 79
-2.261526e+01 -2.037832e+00 -1.639600e+00 187 195 206
-2.261526e+01 -2.037832e+00 -1.639600e+00 187 195 206
-2.059739e+01 -2.192597e+00 -5.836254e-01 131 145 158
-2.162388e+01 -1.171393e+00 -4.604212e+00 27 27 37
3.945564e+01 8.783796e+00 -2.968085e+01 126 139 65
3.729387e+01 9.346860e+00 -3.141510e+01 76 73 37
3.729387e+01 9.346860e+00 -3.141510e+01 76 73 37
4.001246e+01 9.325104e+00 -2.994836e+01 40 35 34
3.942798e+01 1.134081e+01 -3.374538e+01 165 162 78
3.955990e+01 1.164402e+01 -3.323917e+01 73 70 50
4.036831e+01 1.648115e+01 -4.555350e+01 237 236 216
5.585908e+01 1.809711e+01 -5.078092e+01 224 220 206
-8.228106e+00 -3.690540e+00 4.670725e+00 172 177 181
-7.617534e+00 -3.447368e+00 4.982439e+00 174 182 194
-2.501464e+01 2.130137e+00 -2.174975e+00 57 76 99
-2.501464e+01 2.130137e+00 -2.174975e+00 57 76 99
3.564196e+01 7.136596e+00 -2.845162e+01 100 114 49
-1.500230e+01 1.585423e+01 -6.306610e+01 184 179 115
-1.499665e+01 1.651691e+01 -6.446850e+01 212 197 137
4.150601e+01 8.464390e+00 -2.840634e+01 140 142 81
4.020957e+01 1.142796e+01 -3.283751e+01 62 67 47
5.806597e+01 1.794271e+01 -4.938582e+01 235 232 214
-7.351060e+00 -2.677132e+00 5.164502e+00 29 31 34
-1.643067e+01 7.759037e-02 1.985314e+00 158 168 190
3.864091e+01 5.856014e+00 -2.526728e+01 74 73 65
3.539642e+01 7.409387e+00 -2.959727e+01 91 92 62
-1.699312e+01 1.697297e+01 -6.644834e+01 124 125 68
-1.559466e+01 1.688419e+01 -6.508485e+01 196 184 134
3.002375e+01 9.355279e+00 -3.483983e+01 172 182 98
3.162671e+01 9.329315e+00 -3.344710e+01 110 109 57
4.027722e+01 8.688550e+00 -2.962528e+01 96 85 61
-1.208065e+01 1.749179e+01 -6.451257e+01 197 190 120
-1.644931e+01 1.842652e+01 -6.768255e+01 228 210 165
4.237662e+01 8.572421e+00 -2.790167e+01 121 140 58
4.269193e+01 8.913059e+00 -2.842021e+01 68 47 41
4.156304e+01 9.151196e+00 -2.850185e+01 48 37 28
3.643945e+01 1.071302e+01 -3.405789e+01 181 169 102
4.149735e+01 9.564613e+00 -2.821162e+01 49 50 37
3.328087e+01 1.154988e+01 -3.655810e+01 113 121 60
3.821687e+01 1.081578e+01 -3.326266e+01 79 82 39
4.300102e+01 1.811758e+01 -5.332682e+01 95 91 58
3.724531e+01 5.976065e+00 -2.622888e+01 107 103 95
3.732068e+01 6.148971e+00 -2.676324e+01 105 102 68
3.453711e+01 6.751590e+00 -2.870504e+01 171 175 107
-1.523059e+01 1.599519e+01 -6.385141e+01 135 136 76
3.351828e+01 8.083823e+00 -3.130019e+01 123 130 70
4.031620e+01 7.583778e+00 -2.801854e+01 74 69 43
-1.320218e+01 1.643259e+01 -6.347149e+01 190 180 113
-1.568944e+01 1.730325e+01 -6.592425e+01 141 130 77
3.716691e+01 8.845419e+00 -3.179305e+01 116 107 66
-1.504909e+01 1.794267e+01 -6.647419e+01 102 81 40
-1.675721e+01 1.830882e+01 -6.777460e+01 116 107 66
3.891920e+01 9.411121e+00 -3.095853e+01 71 69 46
3.482040e+01 1.041063e+01 -3.409363e+01 203 203 92
3.482040e+01 1.041063e+01 -3.409363e+01 203 203 92
3.493992e+01 1.111908e+01 -3.517808e+01 204 174 130
3.998727e+01 1.176763e+01 -3.372657e+01 82 76 58
3.871852e+01 1.233975e+01 -3.538455e+01 193 182 94
4.196830e+01 1.118643e+01 -2.889202e+01 178 168 135
6.102863e+01 1.681968e+01 -4.461388e+01 80 81 58
-2.347708e+01 -2.042127e+00 -2.190437e+00 121 111 97
-7.378407e+00 -3.596303e+00 5.111320e+00 181 187 175
-6.958662e+00 -3.215897e+00 5.149576e+00 81 90 94
-2.418711e+01 -5.170515e-01 -1.644530e+00 159 171 156
-2.176062e+01 6.980104e-01 -3.707736e-01 115 120 126
3.408055e+01 7.468066e+00 -3.039708e+01 192 185 130
-1.716683e+01 1.625599e+01 -6.545156e+01 205 204 118
-1.455332e+01 1.592548e+01 -6.346153e+01 197 196 117
2.985732e+01 8.776418e+00 -3.398282e+01 62 60 29
3.901176e+01 8.431629e+00 -2.976494e+01 86 82 50
3.406868e+01 9.339732e+00 -3.332621e+01 209 200 122
-1.696648e+01 1.814901e+01 -6.771124e+01 217 198 147
4.239567e+01 8.671771e+00 -2.864372e+01 60 43 33
-1.294646e+01 1.779731e+01 -6.517691e+01 200 194 132
3.746406e+01 9.465302e+00 -3.147267e+01 84 89 45
-1.381198e+01 1.850849e+01 -6.691354e+01 138 127 61
4.146643e+01 9.301133e+00 -2.877506e+01 184 192 142
4.051990e+01 9.912801e+00 -2.907150e+01 48 47 34
4.030643e+01 1.001814e+01 -2.928156e+01 208 211 171
4.030643e+01 1.001814e+01 -2.928156e+01 208 211 171
2.950427e+01 1.229170e+01 -3.881800e+01 111 99 34
2.950427e+01 1.229170e+01 -3.881800e+01 111 99 34
4.238829e+01 1.086509e+01 -2.863223e+01 215 220 157
4.124179e+01 1.103712e+01 -2.912788e+01 198 220 169
4.260334e+01 1.094577e+01 -2.859341e+01 87 69 31
5.838054e+01 1.780337e+01 -4.892694e+01 97 100 76
1.104932e+01 2.087694e+01 -5.163926e+01 199 188 157
1.401595e+01 3.055840e+01 -7.470460e+01 138 126 130
-2.289089e+01 -3.337759e+00 -2.176278e+00 206 208 208
-2.200207e+01 -2.998998e+00 -1.826362e+00 247 248 237
-2.232506e+01 -2.382517e+00 -1.576345e+00 18 21 58
2.905617e+01 8.675545e+00 -3.438887e+01 141 127 73
4.099550e+01 7.354180e+00 -2.729213e+01 122 94 65
3.089649e+01 9.393143e+00 -3.441993e+01 210 209 123
-1.672992e+01 1.810742e+01 -6.789460e+01 229 215 158
-1.658556e+01 1.875429e+01 -6.809348e+01 241 221 185
2.946788e+01 1.146277e+01 -3.800045e+01 188 173 121
4.069045e+01 9.499682e+00 -2.920190e+01 169 174 146
3.351293e+01 1.116614e+01 -3.595479e+01 194 184 118
3.092839e+01 1.180771e+01 -3.756333e+01 93 95 37
2.920481e+01 1.231655e+01 -3.869029e+01 115 107 39
3.514773e+01 1.217629e+01 -3.675086e+01 105 103 52
4.034263e+01 1.219375e+01 -3.401248e+01 78 68 46
5.845654e+01 1.803976e+01 -4.898156e+01 228 230 206
6.121893e+01 1.756316e+01 -4.487431e+01 105 103 70
1.397679e+01 3.023622e+01 -7.428435e+01 241 233 225
-1.133886e+01 -3.847603e+00 2.687916e+00 13 13 13
-7.707669e+00 -3.430075e+00 5.007345e+00 151 160 174
-1.052856e+01 -2.577819e+00 4.098826e+00 135 148 156
-2.379380e+01 -4.031612e-01 -1.866514e+00 22 23 22
-2.169873e+00 -3.240192e+00 5.196351e+00 248 253 249
-6.110119e+00 -2.005219e+00 6.055997e+00 230 240 249
-5.452687e+01 3.017535e+01 -9.749724e+01 255 249 208
-5.735749e+00 -4.446232e+00 4.428706e+00 14 14 14
-9.987423e+00 -3.393353e+00 3.845276e+00 152 152 141
-8.644974e+01 2.585154e+01 -9.702935e+01 244 175 142
-8.644974e+01 2.585154e+01 -9.702935e+01 244 175 142
-1.852651e+01 3.062473e+01 -9.390351e+01 175 175 161
-4.076567e+00 -7.066891e+00 1.184013e+01 173 170 170
-7.828527e-01 -2.913547e+00 3.523145e+00 158 169 161
-8.761415e+00 -3.297840e+00 4.468250e+00 177 170 158
-1.833098e+00 -1.333140e+00 4.615064e+00 254 254 254
-8.870540e+01 2.381688e+01 -9.860244e+01 210 203 169
-8.406140e+01 2.473359e+01 -9.585787e+01 93 68 64
-9.000258e+01 2.718905e+01 -9.888952e+01 109 69 66
-9.000258e+01 2.718905e+01 -9.888952e+01 109 69 66
-9.179688e+01 3.411055e+01 -9.750557e+01 118 72 64
-8.697395e+00 -3.867516e+00 4.294979e+00 199 197 193
-8.632974e+00 -2.581976e+00 4.665318e+00 54 52 53
-1.684688e+00 -8.746410e-01 4.813674e+00 210 215 218
7.220191e+00 1.346751e+01 -5.044347e+01 234 232 117
-8.657568e+01 2.261455e+01 -9.738169e+01 241 236 216
-8.601930e+01 2.363573e+01 -9.681534e+01 108 107 102
-8.283796e+01 2.359211e+01 -9.487715e+01 90 91 79
-8.804201e+01 2.480389e+01 -9.810537e+01 91 79 72
-9.072335e+01 2.605724e+01 -9.914118e+01 240 179 149
-9.160288e+01 2.750275e+01 -9.948539e+01 234 164 131
-9.045828e+01 2.830630e+01 -9.840432e+01 117 77 66
-9.145976e+01 3.131351e+01 -9.833780e+01 112 67 62
-8.975957e+01 3.133580e+01 -9.711044e+01 246 185 148
-8.079417e+00 -4.371522e+00 4.474510e+00 22 21 28
-3.788077e+00 -1.772710e+00 6.145470e+00 254 253 253
-2.335749e+01 -1.555427e+00 -1.975301e+00 233 234 223
6.514702e+00 1.106010e+01 -4.736305e+01 232 233 146
-8.559230e+01 2.120564e+01 -9.700247e+01 237 237 220
-8.490174e+01 2.204976e+01 -9.657321e+01 134 134 136
-8.435261e+01 2.376402e+01 -9.562230e+01 201 193 156
-8.957120e+01 3.006708e+01 -9.745592e+01 241 170 135
-5.135247e+01 3.296283e+01 -9.833832e+01 250 216 173
-8.425494e+01 3.201446e+01 -9.387376e+01 237 173 143
-8.818920e+01 3.494255e+01 -9.554502e+01 140 104 87
-8.409280e+01 3.408762e+01 -9.233346e+01 234 176 142
-6.999671e+00 -5.217471e+00 4.689284e+00 21 23 22
-8.232765e+00 -3.229084e+00 4.776631e+00 161 171 172
-7.198012e+00 -2.847257e+00 5.270413e+00 31 30 36
-2.291642e+01 -3.042240e+00 -2.107005e+00 47 42 50
-3.180408e+00 -1.866154e+00 6.240231e+00 173 168 167
-3.176442e+00 -1.873179e+00 6.295985e+00 173 168 167
8.068341e+00 9.116869e+00 -4.360919e+01 239 244 241
-9.767679e-01 1.137192e+01 -5.152728e+01 255 252 207
5.477506e-01 1.163159e+01 -5.092071e+01 79 68 44
-2.995439e+00 1.204619e+01 -5.342816e+01 216 225 132
-2.578389e+00 1.215054e+01 -5.292851e+01 103 109 67
-3.161709e+00 1.264144e+01 -5.422154e+01 143 136 95
-2.854620e+00 1.282424e+01 -5.381439e+01 97 107 64
-3.764276e+00 1.355316e+01 -5.602829e+01 229 227 139
-8.769485e+01 2.080523e+01 -9.859798e+01 254 252 241
-8.810667e+01 2.137510e+01 -9.834509e+01 156 154 143
1.010990e+01 1.421396e+01 -5.049903e+01 183 161 102
1.010327e+01 1.607201e+01 -5.412456e+01 212 219 120
-9.133699e+01 2.547616e+01 -1.002998e+02 117 89 72
-2.044274e+01 2.671645e+01 -9.593914e+01 255 254 253
4.355171e+00 2.454912e+01 -8.411208e+01 247 247 234
-5.130327e+01 2.957467e+01 -9.980096e+01 227 191 157
-5.080895e+01 3.028566e+01 -1.015529e+02 244 226 201
-8.600125e+01 2.912913e+01 -9.568158e+01 210 146 116
-8.400430e+01 3.060148e+01 -9.407811e+01 235 170 137
-8.675108e+01 3.333817e+01 -9.488364e+01 225 160 129
-8.861767e+01 3.413121e+01 -9.592948e+01 238 165 133
-8.681187e+01 3.511757e+01 -9.432996e+01 213 156 124
-7.657985e+00 -4.081605e+00 4.854170e+00 144 153 157
-2.036806e+01 -2.588737e+00 -9.595306e-01 58 62 62
6.640360e+00 9.300415e+00 -4.447956e+01 243 243 240
5.912166e+00 9.483366e+00 -4.448226e+01 144 136 108
2.638684e+00 9.881685e+00 -4.661619e+01 130 126 87
5.841456e+00 9.852047e+00 -4.506378e+01 226 218 147
2.157878e-01 1.108569e+01 -5.055031e+01 61 50 33
8.504515e-01 1.131837e+01 -5.047560e+01 214 213 131
-7.365323e-01 1.178714e+01 -5.159621e+01 95 65 45
7.241798e+00 1.158371e+01 -4.781365e+01 179 189 103
-4.107969e+00 1.374452e+01 -5.608144e+01 186 183 123
2.984842e+00 1.422593e+01 -5.333582e+01 167 170 93
-8.906611e+01 2.327043e+01 -9.868813e+01 232 223 196
-8.631936e+01 2.437059e+01 -9.692982e+01 176 153 127
-8.603845e+01 2.486154e+01 -9.696544e+01 116 80 67
-8.135255e+01 2.430298e+01 -9.413100e+01 179 132 103
-8.041427e+01 2.478357e+01 -9.357965e+01 245 198 161
-8.837742e+01 2.715935e+01 -9.739604e+01 224 155 127
-8.383005e+01 2.884992e+01 -9.458742e+01 233 163 133
-8.878530e+01 3.080280e+01 -9.689573e+01 197 125 107
-4.680368e+01 3.301460e+01 -1.064041e+02 235 212 188
-8.311940e+01 3.025947e+01 -9.368374e+01 146 93 77
-2.117254e+01 3.104388e+01 -9.527856e+01 194 189 176
-4.841423e+01 3.356765e+01 -1.047675e+02 144 131 115
-9.109572e+01 3.440263e+01 -9.726719e+01 149 92 84
-8.710345e+01 3.426727e+01 -9.493389e+01 209 144 120
-9.123718e+01 3.560731e+01 -9.694927e+01 138 87 76
-6.547517e+01 3.202673e+01 -8.337546e+01 224 177 145
-6.337551e+01 3.188418e+01 -8.142324e+01 242 183 149
-9.294391e+00 -5.060247e+00 3.349006e+00 105 102 95
-7.218460e+00 -4.433170e+00 4.772074e+00 64 68 98
-8.409560e+00 -4.143347e+00 4.370178e+00 105 88 88
-2.114104e+01 -2.818898e+00 -1.165203e+00 109 111 106
-2.030756e+01 -2.346278e+00 -4.595340e-01 36 44 47
-2.210406e+01 -2.189802e+00 -1.530480e+00 161 159 158
-1.090741e+01 -1.906143e+00 4.022941e+00 244 250 243
-2.225273e+01 -1.460394e+00 -1.401526e+00 205 215 220
5.286935e+00 2.503309e+00 -2.210662e+01 166 163 150
-1.556968e+01 7.292313e-02 2.315653e+00 216 222 226
7.221809e+00 9.215932e+00 -4.390228e+01 240 237 230
6.856324e+00 9.435130e+00 -4.434704e+01 181 163 130
5.314462e+00 9.622910e+00 -4.527133e+01 187 179 130
4.078421e+00 9.734103e+00 -4.601989e+01 213 197 142
-7.785784e+00 2.218835e+00 -6.358319e-01 42 44 39
3.309789e+00 1.178133e+01 -4.961338e+01 254 244 186
-3.468516e+00 1.227528e+01 -5.346712e+01 204 211 121
7.272824e+00 1.192444e+01 -4.822084e+01 229 229 135
-9.046068e+01 2.074404e+01 -1.004462e+02 175 173 169
-3.163030e+00 1.316236e+01 -5.505519e+01 244 237 163
5.225454e-01 1.282299e+01 -5.193071e+01 106 91 47
-8.860067e+01 2.141262e+01 -9.900347e+01 154 152 138
-1.247919e+00 1.379110e+01 -5.302627e+01 92 82 55
3.880715e+00 1.482323e+01 -5.401399e+01 230 224 167
-8.455869e+01 2.341726e+01 -9.593060e+01 203 196 170
-1.205626e+01 1.833072e+01 -6.584156e+01 245 238 169
-1.414047e+01 1.844515e+01 -6.661310e+01 155 136 57
-1.426567e+01 2.420570e+01 -8.715292e+01 212 208 135
-1.536386e+01 2.453711e+01 -8.853540e+01 163 159 95
3.607407e+00 2.437584e+01 -8.262547e+01 252 249 239
-8.617867e+01 2.777854e+01 -9.654834e+01 227 163 128
-5.026025e+01 3.024652e+01 -1.020481e+02 123 113 112
-8.301589e+01 2.863270e+01 -9.407672e+01 164 101 84
-8.210111e+01 2.869308e+01 -9.353364e+01 249 184 153
-8.317270e+01 2.916624e+01 -9.422314e+01 237 177 145
-7.170801e+01 2.761224e+01 -8.795739e+01 237 168 146
-1.983212e+01 2.310543e+01 -6.964409e+01 142 137 108
-8.064535e+01 2.951464e+01 -9.271017e+01 244 185 155
-8.140536e+01 2.999723e+01 -9.276244e+01 157 97 85
-5.091883e+01 3.222082e+01 -1.001967e+02 130 108 93
-5.091883e+01 3.222082e+01 -1.001967e+02 130 108 93
-9.027777e+01 3.288656e+01 -9.721863e+01 229 168 139
-8.862286e+01 3.257036e+01 -9.618216e+01 237 166 138
-8.862286e+01 3.257036e+01 -9.618216e+01 237 166 138
-9.085205e+01 3.312800e+01 -9.745821e+01 133 78 73
-9.032951e+01 3.567656e+01 -9.653405e+01 217 157 129
-5.228792e+01 3.575220e+01 -9.782273e+01 224 214 169
-8.864243e+01 3.626549e+01 -9.536261e+01 174 114 90
-6.344006e+00 -4.484274e+00 5.284053e+00 90 90 84
-8.040473e+00 -3.840418e+00 4.665178e+00 25 24 41
-2.359392e+01 -2.363344e+00 -2.304190e+00 255 255 251
-1.577351e+00 -1.411259e+00 4.486037e+00 42 46 53
-1.655288e+00 -1.103183e+00 4.683359e+00 48 46 45
-1.643522e+01 6.092457e-02 1.980379e+00 136 146 167
9.837665e+00 9.036096e+00 -4.312501e+01 239 240 237
7.578694e+00 9.492893e+00 -4.424819e+01 232 227 154
-1.335763e+00 1.152863e+01 -5.157474e+01 65 48 37
6.195314e+00 1.113574e+01 -4.758561e+01 217 217 116
-6.749667e+00 1.261085e+01 -5.592765e+01 255 223 149
-9.138143e+01 2.016040e+01 -1.007889e+02 226 220 197
4.486814e+00 1.239732e+01 -5.053657e+01 244 245 153
3.824959e+00 1.244294e+01 -5.062215e+01 237 233 146
-8.577728e+00 1.347589e+01 -5.765491e+01 228 229 150
6.629803e+00 1.219159e+01 -4.847881e+01 226 230 150
-8.620595e+01 2.082567e+01 -9.779594e+01 245 246 231
-1.940778e+00 1.306696e+01 -5.255091e+01 166 171 118
-1.937648e+00 1.307984e+01 -5.264984e+01 166 171 118
-9.094847e+00 1.457369e+01 -5.949723e+01 151 135 84
-9.094847e+00 1.457369e+01 -5.949723e+01 151 135 84
-4.501409e-01 1.350290e+01 -5.168340e+01 222 233 177
3.108748e+00 1.396094e+01 -5.320059e+01 228 234 125
-1.304529e+01 1.595069e+01 -6.293266e+01 245 239 173
7.657501e+00 1.412082e+01 -5.118440e+01 231 229 138
4.793882e+00 1.477061e+01 -5.343347e+01 241 238 146
-1.319976e+01 1.651985e+01 -6.381407e+01 229 218 136
1.009538e+01 1.439743e+01 -5.077053e+01 166 154 92
5.676738e-01 1.542903e+01 -5.599309e+01 187 178 120
2.487107e+00 1.555154e+01 -5.592981e+01 225 227 133
-8.394462e+01 2.358799e+01 -9.572782e+01 174 169 138
-9.087180e+01 2.450633e+01 -9.943701e+01 171 163 132
8.732594e+00 1.562568e+01 -5.363962e+01 245 233 157
-1.498629e+01 1.794615e+01 -6.634544e+01 139 106 68
-1.495997e+01 1.790502e+01 -6.615981e+01 139 106 68
-8.836571e+01 2.460544e+01 -9.832474e+01 73 66 56
-9.972609e+00 1.752246e+01 -6.370978e+01 250 229 166
-1.295895e+01 1.785599e+01 -6.538656e+01 238 234 164
-9.851289e+00 1.790874e+01 -6.400865e+01 203 194 105
-6.012367e+01 2.211578e+01 -6.309984e+01 194 182 131
-8.182419e+01 3.025375e+01 -9.253351e+01 224 156 130
-5.144671e+01 3.244727e+01 -9.962545e+01 170 139 104
-5.144671e+01 3.244727e+01 -9.962545e+01 170 139 104
-9.072225e+01 3.232335e+01 -9.741271e+01 162 104 89
-8.965371e+01 3.270886e+01 -9.687498e+01 174 114 88
-8.965371e+01 3.270886e+01 -9.687498e+01 174 114 88
-6.010232e+01 2.344943e+01 -6.249132e+01 236 228 172
-5.125402e+01 3.397845e+01 -9.937620e+01 136 116 92
-5.488671e+01 3.320993e+01 -9.341085e+01 114 104 77
-8.943718e+01 3.497819e+01 -9.616943e+01 221 157 127
-6.024836e+01 2.476199e+01 -6.201844e+01 199 188 143
-2.156480e+01 2.735627e+01 -6.972702e+01 135 126 117
-4.610289e+01 3.895940e+01 -1.077605e+02 255 253 252
-5.164018e+01 3.664958e+01 -9.849805e+01 248 222 189
-8.782092e+01 3.690369e+01 -9.448167e+01 244 190 159
-6.993535e+00 -5.041818e+00 4.901981e+00 90 85 79
-7.906866e+00 -4.547735e+00 4.460484e+00 245 244 244
-7.737636e+00 -4.467414e+00 4.385602e+00 139 130 123
-7.789405e+00 -3.323414e+00 4.894446e+00 57 58 77
-9.738224e+00 -2.270660e+00 4.461282e+00 106 108 103
3.872363e+00 1.470229e+00 -1.892127e+01 254 253 235
-1.625280e+00 -1.043117e+00 4.705398e+00 206 214 190
-1.625280e+00 -1.043117e+00 4.705398e+00 206 214 190
-3.481187e+00 -1.074165e+00 6.324107e+00 63 70 97
-1.627523e+01 4.223264e-02 1.942485e+00 241 248 238
3.577831e+00 8.706176e+00 -4.497025e+01 73 64 60
-1.144816e+01 5.651125e-01 3.804687e+00 254 254 248
9.227772e+00 8.944577e+00 -4.257855e+01 244 245 242
3.772773e+00 9.520499e+00 -4.565300e+01 245 249 243
-2.370378e+00 1.147074e+01 -5.205673e+01 255 226 149
-5.965278e+00 1.191255e+01 -5.405058e+01 255 255 202
-1.323739e+00 1.170057e+01 -5.163564e+01 215 210 172
-7.816224e-01 1.177430e+01 -5.172698e+01 82 53 41
-3.347827e-01 1.190445e+01 -5.137717e+01 103 80 67
-8.155459e-01 1.199138e+01 -5.143757e+01 77 53 31
5.752382e+00 1.179041e+01 -4.865468e+01 199 181 111
5.752382e+00 1.179041e+01 -4.865468e+01 199 181 111
-9.001621e+00 1.303801e+01 -5.741891e+01 255 248 181
9.261226e+00 1.183746e+01 -4.726807e+01 175 157 81
-1.542335e+00 1.253978e+01 -5.209181e+01 47 45 11
9.689669e-01 1.290481e+01 -5.212292e+01 245 233 157
6.311978e+00 1.276362e+01 -4.989106e+01 250 245 142
6.645794e+00 1.285836e+01 -4.980878e+01 168 153 49
9.239091e+00 1.303078e+01 -4.906419e+01 240 228 129
-8.964336e+00 1.470568e+01 -5.961454e+01 254 223 160
-6.389902e+00 1.462511e+01 -5.828498e+01 166 157 91
-9.909732e-01 1.396096e+01 -5.328361e+01 254 252 179
1.429655e+00 1.431385e+01 -5.444132e+01 182 187 102
-1.329565e+01 1.749263e+01 -6.500108e+01 237 226 161
-1.547649e+01 1.840403e+01 -6.685563e+01 236 226 144
-1.427607e+01 1.926845e+01 -6.871314e+01 252 248 170
-5.330124e+01 2.899233e+01 -9.715194e+01 253 253 249
-8.681234e+01 2.934974e+01 -9.610853e+01 184 124 95
-8.666465e+01 2.928455e+01 -9.587588e+01 184 124 95
-5.657419e+01 2.808778e+01 -9.106406e+01 255 243 202
-5.657419e+01 2.808778e+01 -9.106406e+01 255 243 202
-6.033496e+01 2.145106e+01 -6.331099e+01 207 196 155
-6.054712e+01 2.166627e+01 -6.331029e+01 250 238 204
-5.093076e+01 3.150267e+01 -1.008557e+02 255 233 205
-6.104833e+01 2.234036e+01 -6.330090e+01 254 242 203
-5.170510e+01 3.211281e+01 -9.885058e+01 247 228 175
-5.179958e+01 3.231040e+01 -9.864667e+01 160 142 94
-5.170956e+01 3.268287e+01 -9.868399e+01 243 227 158
-4.905783e+01 3.399360e+01 -1.030061e+02 226 219 201
-5.322350e+01 3.268245e+01 -9.699073e+01 68 62 47
-6.012051e+01 2.363409e+01 -6.230866e+01 242 234 177
-5.715694e+01 3.112823e+01 -8.945385e+01 255 240 209
-6.020534e+01 2.444548e+01 -6.188996e+01 243 232 185
-5.191722e+01 3.511847e+01 -9.711055e+01 155 146 113
-4.891974e+01 3.726021e+01 -1.023060e+02 225 218 189
-5.215331e+01 3.617987e+01 -9.749129e+01 160 146 112
-6.110117e+01 3.245255e+01 -8.261899e+01 216 190 167
-6.474345e+01 3.266029e+01 -8.222522e+01 137 81 70
-7.418219e+00 -3.381468e+00 4.598122e+00 191 189 186
-1.638795e+01 -2.456995e+00 9.105103e-01 152 154 155
4.106458e+01 7.884675e+00 -2.788552e+01 132 138 47
-8.090287e+00 -4.613900e+00 4.677576e+00 224 215 212
3.234570e+01 9.210663e+00 -3.323382e+01 187 178 93
4.101975e+01 1.739978e+01 -5.228355e+01 138 135 51
-6.552648e+00 -2.558000e+00 5.695467e+00 83 79 72
3.004878e+01 9.363371e+00 -3.486499e+01 152 166 76
3.396701e+01 1.103817e+01 -3.548865e+01 177 162 82
3.961750e+01 9.799294e+00 -2.985724e+01 14 14 11
-7.616871e+00 -4.071320e+00 4.764303e+00 180 175 171
4.075169e+01 7.683030e+00 -2.778072e+01 151 144 69
2.949739e+01 1.028024e+01 -3.629792e+01 125 117 63
4.027440e+01 9.387812e+00 -2.917594e+01 13 14 11
3.483126e+01 1.130171e+01 -3.539283e+01 68 69 27
3.741752e+01 1.123982e+01 -3.466098e+01 76 74 27
3.067521e+01 1.251520e+01 -3.864863e+01 201 171 107
4.210968e+01 1.880575e+01 -5.414881e+01 43 41 28
3.345261e+01 9.011546e+00 -3.266611e+01 106 103 46
3.085103e+01 1.178925e+01 -3.748400e+01 72 75 27
4.095894e+01 9.468037e+00 -2.921425e+01 24 20 16
3.053330e+01 1.348166e+01 -4.078916e+01 101 94 22
3.891496e+01 1.165984e+01 -3.429051e+01 212 196 134
-1.675705e+01 1.042962e+00 1.594393e+00 195 194 190
-1.293213e+01 2.164376e+00 3.093205e+00 151 169 131
-2.489199e+01 3.423173e+01 -9.679079e+01 166 163 157
-4.654245e+01 3.577016e+01 -1.073819e+02 241 221 198
-4.945678e+01 3.551210e+01 -1.023633e+02 132 135 140
-4.088689e-01 1.331332e+01 -5.167791e+01 97 90 39
-4.896228e+01 2.865087e+01 -1.047767e+02 190 182 162
-4.835322e+01 2.889538e+01 -1.052517e+02 212 202 167
-4.796977e+01 2.909419e+01 -1.061042e+02 239 211 193
-5.566054e+01 2.677021e+01 -9.320451e+01 225 213 169
-5.566054e+01 2.677021e+01 -9.320451e+01 225 213 169
-4.836044e+01 3.237644e+01 -1.048628e+02 233 219 190
-1.962607e+01 2.306349e+01 -6.976785e+01 245 235 224
-4.637844e+01 3.995945e+01 -1.069551e+02 251 246 246
-4.648750e+01 3.997359e+01 -1.065912e+02 132 120 114
-9.075385e+01 3.464137e+01 -9.845273e+01 207 141 112
-9.230363e+01 3.603714e+01 -9.754683e+01 127 89 74
-9.316129e+01 2.320512e+01 -1.013899e+02 143 138 131
-1.724634e+01 3.386950e+00 1.005926e+00 170 194 180
-9.347804e+01 3.359552e+01 -9.899883e+01 205 149 123
-9.373403e+01 2.123759e+01 -1.019540e+02 221 218 203
-9.188860e+01 3.037555e+01 -9.884312e+01 238 170 137
-1.038089e+02 3.247479e+01 -1.053141e+02 187 130 109
-9.326546e+01 3.180915e+01 -9.947270e+01 229 175 138
-9.195779e+01 2.924054e+01 -9.937065e+01 232 169 129
-9.795727e+01 3.788734e+01 -1.009451e+02 241 172 139
-9.328356e+01 2.307420e+01 -1.012770e+02 128 126 118
-9.328356e+01 2.307420e+01 -1.012770e+02 128 126 118
-9.287243e+01 2.776249e+01 -1.000735e+02 197 132 106
-8.578762e+01 2.838028e+01 -9.570085e+01 213 153 117
-9.676450e+01 3.427278e+01 -1.006185e+02 164 112 89
-9.374519e+01 3.436534e+01 -9.888376e+01 169 117 99
-9.455936e+01 3.453139e+01 -9.922053e+01 240 178 148
-9.442782e+01 3.447403e+01 -9.903049e+01 240 178 148
-4.869271e+01 3.668996e+01 -1.033851e+02 244 232 210
-9.248524e+01 3.785805e+01 -9.737165e+01 244 183 152
-9.403396e+01 3.833682e+01 -9.802209e+01 246 187 150
-4.435866e+01 4.013067e+01 -1.063647e+02 191 183 171
-6.445056e+01 3.309812e+01 -8.199432e+01 231 174 142
4.004392e+00 1.000589e+01 -4.650716e+01 254 249 187
-9.252124e+01 2.017142e+01 -1.013664e+02 213 207 179
-9.381444e+01 2.345595e+01 -1.014488e+02 195 190 172
-9.214213e+01 2.362651e+01 -1.005568e+02 134 132 117
-9.321613e+01 2.560123e+01 -1.008967e+02 222 171 137
-9.240844e+01 2.819893e+01 -9.970050e+01 194 129 97
-9.253612e+01 2.947233e+01 -9.940489e+01 197 134 109
-9.492929e+01 3.397492e+01 -9.966447e+01 188 128 105
-1.011595e+02 3.745797e+01 -1.022363e+02 181 124 104
-5.202042e+01 3.652712e+01 -9.743293e+01 238 227 191
-5.970489e+01 2.674600e+01 -6.164885e+01 239 235 189
-1.417946e+01 -2.864379e+00 2.140584e+00 65 71 75
-7.910166e+00 1.285210e+00 2.097135e+00 91 95 115
-9.366002e+01 2.064463e+01 -1.024546e+02 162 163 149
-1.232137e+01 1.623599e+01 -6.315963e+01 252 236 175
-1.232137e+01 1.623599e+01 -6.315963e+01 252 236 175
-1.661211e-01 1.637654e+01 -5.791370e+01 172 174 89
-7.745553e+01 2.770082e+01 -9.111867e+01 150 90 72
-6.011166e+01 2.150521e+01 -6.332853e+01 245 235 195
-7.049456e+01 3.211013e+01 -8.585690e+01 146 96 72
-6.679429e+01 3.189142e+01 -8.393238e+01 232 187 160
-6.262899e+01 3.214934e+01 -8.127318e+01 255 249 246
-6.339180e+01 3.265452e+01 -8.169835e+01 242 181 151
-9.543601e+00 1.256932e+00 2.641854e+00 52 60 61
-3.311789e-01 1.191699e+01 -5.142963e+01 103 80 67
-4.440556e-01 1.239622e+01 -5.138121e+01 218 210 175
-5.569850e+01 2.690008e+01 -9.281948e+01 187 166 130
-5.515517e+01 2.832279e+01 -9.290632e+01 118 98 67
-5.662300e+01 3.121630e+01 -9.003340e+01 255 240 208
-5.966177e+01 2.469479e+01 -6.269169e+01 242 234 174
-6.109727e+01 3.245194e+01 -8.261886e+01 216 190 167
-6.308644e+01 3.239620e+01 -8.156680e+01 188 129 120
-4.818964e+01 3.912175e+01 -1.038917e+02 254 227 203
-2.214550e+00 -1.342939e+00 5.221325e+00 255 255 255
-2.126020e+00 1.266285e+01 -5.345476e+01 88 90 64
-2.015897e+00 1.250247e+01 -5.246620e+01 88 90 64
4.109383e+00 9.241386e+00 -4.567048e+01 221 226 229
2.657710e-01 9.974063e+00 -4.908724e+01 226 230 231
2.657710e-01 9.974063e+00 -4.908724e+01 226 230 231
-2.453711e+00 -2.569833e+00 5.376988e+00 190 119 37
-7.254508e-01 -2.195683e+00 3.788409e+00 147 158 160
-9.026892e+01 3.444223e+01 -9.774228e+01 228 157 132
-4.585031e-01 -1.714119e+00 3.749624e+00 62 69 77
-1.383458e+00 -1.325684e+00 4.425575e+00 204 210 209
-4.335396e+00 -1.352312e+00 6.579826e+00 200 144 128
-4.595054e+01 3.643587e+01 -1.071223e+02 255 255 251
-7.878195e+00 -4.468888e+00 4.488130e+00 161 162 164
-6.886073e+00 -3.326842e+00 5.274562e+00 138 146 160
6.861769e+00 1.252221e+01 -4.880848e+01 188 176 100
6.095102e+00 1.266118e+01 -4.973533e+01 234 231 135
-1.503786e+01 1.640463e+01 -6.426649e+01 225 215 151
-9.172160e+01 3.322664e+01 -9.800753e+01 137 83 71
-9.172160e+01 3.322664e+01 -9.800753e+01 137 83 71
-1.650941e+00 -1.627338e+00 4.421624e+00 160 179 197
-2.227400e+01 -1.841778e+00 -1.513151e+00 255 255 255
4.301672e+00 1.821905e+00 -2.007969e+01 253 254 252
7.466357e+00 3.614329e+00 -2.538709e+01 162 157 154
7.691397e+00 9.935735e+00 -4.489041e+01 161 159 97
-1.221859e+01 1.373222e+00 3.331321e+00 200 218 233
7.655371e+00 2.370254e+01 -8.003324e+01 246 247 233
3.331729e+00 2.420345e+01 -8.255185e+01 246 246 234
-9.146885e+01 3.131464e+01 -9.835752e+01 126 75 70
-9.051880e+01 3.514681e+01 -9.700363e+01 249 186 154
-6.930621e+00 -4.277616e+00 4.965539e+00 111 112 113
-2.826232e-01 -1.732848e+00 3.601049e+00 222 222 213
-4.473285e+00 -2.215164e+00 6.436963e+00 245 248 248
3.208963e+00 1.282107e+00 -1.827005e+01 253 254 250
-3.365268e+00 -1.108350e+00 6.332334e+00 101 100 113
-9.476639e-03 -1.510582e-01 1.216020e+00 220 226 218
2.404185e+00 9.668459e+00 -4.657657e+01 236 243 243
-2.187515e+01 1.917448e+00 -8.434579e-01 76 88 103
4.965470e+00 1.293625e+01 -5.078218e+01 219 214 111
-1.700430e+01 1.659203e+01 -6.551356e+01 175 167 84
-1.703044e+01 3.704622e+00 8.370384e-01 70 91 116
-2.757304e+00 -3.318413e+00 5.907938e+00 17 25 45
3.322737e-01 -1.352836e+00 2.233202e+00 253 252 251
-1.642108e+00 9.218988e+00 -4.802205e+01 182 173 166
4.757789e+00 9.490153e+00 -4.563272e+01 235 237 239
-5.645810e-01 1.122718e+01 -5.134687e+01 110 88 74
1.498643e+00 1.205322e+01 -5.079405e+01 245 222 166
-4.063674e+00 1.294281e+01 -5.513344e+01 171 164 107
-1.346431e+01 1.581406e+01 -6.297901e+01 234 224 155
3.491457e+00 1.630671e+01 -5.699263e+01 224 217 131
-8.384380e+00 1.799937e+01 -6.458987e+01 185 170 100
-7.136169e+01 2.691118e+01 -8.714562e+01 250 179 150
-4.683683e+01 3.222036e+01 -1.065858e+02 255 244 225
-4.684054e+01 3.222784e+01 -1.065947e+02 255 244 225
-9.284413e+01 3.318022e+01 -9.855187e+01 234 178 151
-9.345495e+01 3.509331e+01 -9.859517e+01 236 174 147
-9.308646e+01 3.621363e+01 -9.829013e+01 121 81 68
-1.088570e+01 -3.182033e+00 3.503091e+00 59 59 64
-1.330187e+01 -3.001956e+00 1.508596e+00 57 61 63
2.513581e-02 -2.035739e+00 2.574520e+00 225 227 222
-1.610259e+00 -1.581652e+00 4.421447e+00 147 165 179
3.796852e+00 1.656840e+00 -1.947239e+01 250 250 241
-1.690151e+01 -1.361447e+00 1.488866e+00 211 221 225
-2.334624e+00 8.883953e+00 -4.700678e+01 187 174 166
-1.971319e+00 9.683049e+00 -4.854175e+01 152 148 135
-4.506523e+00 1.028846e+01 -5.036927e+01 160 152 141
6.092076e-01 1.085150e+01 -4.942396e+01 222 224 135
-1.748261e+01 1.367106e+01 -6.201199e+01 179 175 108
-9.724279e-01 1.332906e+01 -5.195168e+01 201 203 160
-1.737406e+01 1.707198e+01 -6.619013e+01 234 214 160
3.596988e+00 1.655471e+01 -5.705617e+01 165 156 76
-1.687429e+01 1.830145e+01 -6.756945e+01 155 139 94
-1.646976e+01 1.829119e+01 -6.710096e+01 254 237 194
-1.233984e+01 1.821259e+01 -6.575570e+01 195 196 104
-1.359652e+01 1.839903e+01 -6.633818e+01 165 164 85
-2.225861e+01 1.975474e+01 -7.215499e+01 247 247 158
-2.133761e+01 1.975457e+01 -7.103206e+01 115 124 78
-2.242765e+01 2.655279e+01 -9.502993e+01 251 248 235
-8.641751e+01 2.793422e+01 -9.633093e+01 198 131 107
-8.817711e+01 2.843479e+01 -9.672544e+01 251 178 149
-1.984823e+01 2.311981e+01 -6.970010e+01 139 136 109
-9.987941e+01 3.230264e+01 -1.032480e+02 219 157 134
-4.672165e+01 3.462064e+01 -1.073549e+02 136 106 95
-9.220307e+01 3.285223e+01 -9.842224e+01 139 85 66
-7.037866e+01 2.985229e+01 -8.656499e+01 142 80 63
-9.036107e+01 3.412712e+01 -9.693830e+01 244 180 154
-9.190934e+01 3.506916e+01 -9.758245e+01 216 153 132
-9.366250e+01 3.610636e+01 -9.835346e+01 235 178 146
-1.014073e+02 3.754080e+01 -1.025409e+02 195 137 115
-9.247512e+01 3.766809e+01 -9.731081e+01 255 198 169
-2.371493e-01 -2.027399e+00 3.327111e+00 223 218 209
-1.923506e-01 -1.646566e+00 3.340571e+00 104 104 110
-1.146910e+00 -9.033794e-01 3.364906e+00 142 145 133
-1.561813e+01 -2.283602e-03 2.337146e+00 101 115 141
-2.004791e-01 9.319071e+00 -4.741006e+01 216 220 200
-4.464843e+00 9.692815e+00 -4.981427e+01 202 189 164
-6.381324e-01 9.615142e+00 -4.755906e+01 175 169 147
-6.396793e-01 9.613286e+00 -4.758937e+01 175 169 147
-9.783382e-01 9.805831e+00 -4.778812e+01 144 140 124
-9.783382e-01 9.805831e+00 -4.778812e+01 144 140 124
-3.514422e+00 1.014534e+01 -4.953461e+01 165 157 136
-4.121602e+00 1.014300e+01 -4.955652e+01 142 140 127
-8.439789e+00 1.041322e+01 -5.208601e+01 236 224 195
-9.606719e+00 1.076789e+01 -5.293951e+01 175 168 147
3.505965e+00 1.045770e+01 -4.745652e+01 239 223 164
5.257446e+00 1.115529e+01 -4.785649e+01 250 235 165
6.464710e-01 1.153371e+01 -5.049758e+01 74 52 28
6.729032e+00 1.184319e+01 -4.821191e+01 253 237 181
7.804795e+00 1.318933e+01 -4.990120e+01 227 210 143
-2.235475e-01 1.364160e+01 -5.206213e+01 82 82 57
7.827521e+00 1.376293e+01 -5.068427e+01 223 221 132
-1.230125e+01 1.540259e+01 -6.235983e+01 239 229 162
3.943519e+00 1.439492e+01 -5.290590e+01 154 162 73
-1.259501e+01 1.617617e+01 -6.313762e+01 243 228 166
-1.259501e+01 1.617617e+01 -6.313762e+01 243 228 166
3.867659e-01 1.543016e+01 -5.628618e+01 233 227 163
3.867659e-01 1.543016e+01 -5.628618e+01 233 227 163
-1.669515e+01 1.704684e+01 -6.575298e+01 251 242 176
2.873144e+00 1.572881e+01 -5.581923e+01 229 225 142
-1.590377e+01 1.750457e+01 -6.605326e+01 253 236 184
-1.651702e+01 1.800290e+01 -6.713507e+01 180 170 116
-1.653731e+01 1.802619e+01 -6.726202e+01 180 170 116
-2.331447e+01 1.872294e+01 -7.072893e+01 249 240 160
-1.961047e+01 1.922449e+01 -6.969906e+01 184 192 111
-6.105888e+01 2.472335e+01 -8.347809e+01 71 58 61
-8.936285e+01 2.891462e+01 -9.778146e+01 183 118 94
-8.936285e+01 2.891462e+01 -9.778146e+01 183 118 94
-5.069426e+01 3.045945e+01 -1.016526e+02 255 247 229
-3.336249e+00 2.731550e+01 -8.609953e+01 149 149 146
-5.066243e+01 3.148474e+01 -1.008462e+02 157 126 109
-7.193607e+01 2.919189e+01 -8.742614e+01 210 151 125
-4.637131e+01 3.447056e+01 -1.075302e+02 255 232 202
-9.505123e+01 3.307484e+01 -1.000398e+02 199 135 111
-9.145713e+01 3.259880e+01 -9.794104e+01 204 141 120
-9.160068e+01 3.390298e+01 -9.778393e+01 200 134 117
-6.837734e+01 3.086901e+01 -8.507758e+01 156 94 81
-6.837734e+01 3.086901e+01 -8.507758e+01 156 94 81
-9.473919e+01 3.570086e+01 -9.910679e+01 225 166 134
-9.210064e+01 3.568386e+01 -9.748736e+01 185 135 120
-9.416161e+01 3.730507e+01 -9.859781e+01 255 200 167
-9.208945e+01 3.743720e+01 -9.731620e+01 190 125 97
-2.173564e+01 2.794391e+01 -6.952414e+01 145 137 132
-9.567284e+01 3.832260e+01 -9.938386e+01 252 184 158
-7.152488e+00 -5.249459e+00 4.668774e+00 20 20 20
-1.222843e-02 -2.248344e+00 2.706033e+00 110 119 138
1.259753e+00 2.759266e-01 -1.504237e+01 247 242 230
3.741275e+00 1.487066e+00 -1.886217e+01 171 162 142
-6.311145e+01 3.393408e+00 -3.554011e+01 248 212 175
6.046822e+00 8.471178e+00 -4.384598e+01 153 142 130
-7.365448e-01 9.781876e+00 -4.776034e+01 229 222 189
-3.754489e+00 9.943780e+00 -4.945743e+01 211 201 172
7.745424e+00 9.756011e+00 -4.432630e+01 149 155 102
-7.965283e+00 1.310476e+00 2.118114e+00 195 206 204
8.079929e+00 1.108296e+01 -4.670885e+01 244 208 146
-5.967292e+00 1.190984e+01 -5.406048e+01 255 249 195
7.860092e+00 1.149629e+01 -4.736635e+01 126 118 54
-2.843082e+00 1.225091e+01 -5.351099e+01 214 215 146
6.967558e+00 1.250094e+01 -4.914389e+01 167 156 92
1.212726e-01 1.281475e+01 -5.147046e+01 216 225 167
-1.807076e+01 1.807227e+01 -6.778580e+01 252 252 201
8.341782e+00 1.584949e+01 -5.393887e+01 157 147 80
-1.339557e+01 1.774145e+01 -6.525514e+01 152 142 60
-8.792060e+01 2.846063e+01 -9.697218e+01 195 129 105
-4.782470e+01 3.103178e+01 -1.063372e+02 134 107 90
-4.782470e+01 3.103178e+01 -1.063372e+02 134 107 90
-5.592917e+01 2.787689e+01 -9.254031e+01 244 227 186
-4.911791e+01 3.103100e+01 -1.035591e+02 126 122 127
-5.569700e+01 2.882223e+01 -9.345047e+01 222 202 165
-5.072574e+01 3.282941e+01 -9.999305e+01 245 222 187
-4.794413e+01 3.426086e+01 -1.050018e+02 255 235 214
-4.266276e+01 3.483931e+01 -1.071284e+02 215 207 194
-6.030355e+01 2.331156e+01 -6.259081e+01 166 156 109
-4.801811e+01 3.499570e+01 -1.049825e+02 255 238 208
-4.924520e+01 3.527297e+01 -1.028231e+02 99 98 92
-8.879750e+01 3.506904e+01 -9.583690e+01 203 140 115
-1.007504e+02 3.744847e+01 -1.022830e+02 250 186 166
-4.672233e+01 3.901935e+01 -1.066324e+02 157 137 111
-6.325357e+01 3.223748e+01 -8.154354e+01 251 191 164
-1.395944e+01 2.890780e+00 1.284414e+00 173 187 148
-1.515637e+01 3.242849e+00 -4.511077e+00 212 223 187
-4.844363e+01 3.271623e+01 -1.043073e+02 212 200 168
-4.826513e+01 3.033088e+01 -1.051859e+02 250 231 209
-5.295539e+01 2.840985e+01 -9.775106e+01 124 117 93
-2.026531e+01 2.041138e+01 -7.025951e+01 253 247 231
-2.001324e+01 1.979880e+01 -7.020536e+01 191 186 151
-2.001324e+01 1.979880e+01 -7.020536e+01 191 186 151
-1.991778e+01 2.429036e+01 -6.950572e+01 255 253 241
1.378481e+01 9.641524e+00 -4.291866e+01 157 161 96
-4.679275e+01 1.742569e+01 -7.562941e+01 254 225 168
-4.725101e+01 3.508907e+01 -1.058994e+02 239 223 196
-5.211709e+01 3.631437e+01 -1.168432e+02 132 122 103
-5.958822e+01 2.283226e+01 -8.662030e+01 120 109 88
-4.777036e+01 2.955830e+01 -1.063847e+02 255 235 214
-5.606476e+01 2.821614e+01 -9.172216e+01 233 220 176
-2.572740e+01 1.176613e+01 -6.162465e+01 252 210 153
-1.972211e+01 2.195034e+01 -6.985480e+01 254 243 221
-2.007076e+01 2.054891e+01 -7.010845e+01 194 188 164
-2.034526e+01 2.151551e+01 -7.000435e+01 239 230 206
-3.345188e+00 2.716732e+01 -8.565947e+01 108 105 99
-8.252101e+00 -2.709886e+00 4.607916e+00 201 173 144
-1.225982e+01 1.632486e+00 3.335169e+00 149 159 166
-1.231715e+01 1.691026e+00 3.331353e+00 155 158 167
-1.342320e+01 3.302421e+00 2.323146e+00 69 83 97
-3.353920e+00 2.680859e+01 -8.599618e+01 126 125 104
-8.150891e+00 -4.618576e+00 4.389530e+00 165 156 150
-7.732445e+00 -4.466819e+00 4.386614e+00 195 170 151
-7.621046e+00 -6.386549e-02 2.799523e+00 179 188 191
-1.281011e+01 -2.298708e+00 7.244364e+00 55 68 73
-1.338298e+01 1.160525e+00 2.896471e+00 255 254 255
-7.132160e+00 -2.098996e+00 5.651958e+00 67 73 72
-1.225590e+01 5.899665e-01 3.331641e+00 62 70 82
-8.053139e+00 -4.366924e+00 4.664136e+00 22 21 28
-9.474789e+01 2.449082e+01 -1.016496e+02 204 198 163
-7.937918e+01 2.862161e+01 -9.203116e+01 247 188 153
-6.779763e+00 -4.215180e+00 5.008007e+00 42 45 49
-1.269984e+01 3.134490e+00 -6.394792e+00 127 164 178
-9.525304e+01 2.309250e+01 -1.024495e+02 199 196 178
-1.512247e+01 1.773989e+01 -6.507534e+01 138 121 66
-7.163903e+00 -5.249109e+00 4.618705e+00 21 20 25
-8.749199e+00 -3.607731e+00 4.307221e+00 224 223 211
-8.125414e+00 1.715241e+00 6.871606e-01 104 109 113
-9.450966e+01 2.367210e+01 -1.018822e+02 148 147 128
1.695618e+00 1.664632e+01 -5.760113e+01 193 189 101
-8.055732e+01 2.948882e+01 -9.255391e+01 244 185 155
-9.489507e+01 3.485959e+01 -9.918233e+01 165 109 93
-9.361414e+01 3.522013e+01 -9.806653e+01 155 104 87
-4.893211e+01 3.632323e+01 -1.029383e+02 135 123 108
-6.858293e+00 -3.915827e+00 5.091632e+00 38 46 69
-6.874410e+00 1.381595e+01 -5.763848e+01 238 228 157
-9.450556e+01 2.292307e+01 -1.020528e+02 147 148 135
-1.263945e+01 1.647485e+01 -6.356070e+01 177 185 114
-6.912752e+00 -3.247492e+00 5.264412e+00 46 52 73
-7.819633e+00 -3.260854e+00 4.923554e+00 30 34 43
-5.807411e+00 -2.320097e+00 6.101582e+00 212 227 240
-9.378613e+00 1.341307e+00 2.336955e+00 31 35 44
-7.012968e+00 1.226283e+01 -5.503592e+01 246 237 184
-1.288196e+00 1.277243e+01 -5.193603e+01 238 223 191
-5.823379e-01 1.306231e+01 -5.184841e+01 67 54 27
-1.099860e+01 1.603027e+01 -6.219132e+01 228 226 157
-1.099860e+01 1.603027e+01 -6.219132e+01 228 226 157
-7.540077e+00 1.604989e+01 -6.085501e+01 236 235 161
-1.316724e+01 1.674187e+01 -6.382371e+01 162 152 73
-7.232004e+00 1.724329e+01 -6.250140e+01 165 153 83
-5.045075e+01 3.070380e+01 -1.014216e+02 149 121 102
-4.791518e+01 3.241924e+01 -1.055119e+02 252 227 206
-4.737593e+01 3.467429e+01 -1.061787e+02 240 217 188
-4.312722e+00 -2.112774e+00 6.400917e+00 203 222 242
-1.435489e+00 -2.862517e+00 4.864932e+00 85 82 73
-1.006413e+01 -4.103007e+00 3.384248e+00 132 128 117
-7.072798e+00 2.724704e+00 -3.353680e+00 50 52 48
-1.732752e+00 -2.972087e+00 4.878314e+00 191 201 200
-8.099245e+00 -2.836545e+00 4.869012e+00 14 15 18
1.873710e-01 -1.264710e+00 2.306711e+00 93 99 103
3.397308e-01 -1.191073e+00 2.165653e+00 95 100 103
-1.899044e+01 2.890252e+01 -9.495440e+01 186 184 170
-1.899044e+01 2.890252e+01 -9.495440e+01 186 184 170
-6.404186e-01 -1.628456e+00 3.684189e+00 191 200 200
-3.412267e+00 -1.715455e+00 6.026704e+00 177 183 196
-2.482277e+02 5.556451e+01 -2.234389e+02 173 175 177
-2.750800e+00 -3.316782e+00 5.836962e+00 17 25 45
-9.293735e-01 -2.737378e+00 2.898856e+00 123 127 113
-4.549226e+00 -2.112419e+00 6.347626e+00 183 210 239
-3.979906e+00 -1.473307e+00 6.088459e+00 255 254 251
-2.437850e+02 5.814357e+01 -2.193747e+02 241 235 223
-1.150932e+02 3.442126e+01 -1.113879e+02 255 255 255
-8.650463e+00 -3.942547e+00 4.247026e+00 241 240 237
1.045293e-01 -1.852916e+00 2.437862e+00 233 234 220
-1.662447e-01 -1.881471e+00 3.201111e+00 230 230 212
-1.078611e+01 -1.897145e+00 3.928460e+00 176 196 201
-4.020568e+00 -1.469014e+00 6.367947e+00 255 175 139
-3.940963e+00 -1.401959e+00 6.009550e+00 240 186 176
-4.469892e+00 -1.465319e+00 6.571012e+00 255 255 167
-4.469892e+00 -1.465319e+00 6.571012e+00 255 255 167
-8.400936e+00 1.630385e+00 1.051886e+00 86 106 115
-7.476650e+00 -3.671523e+00 4.897776e+00 27 26 43
-7.759594e+00 -3.176505e+00 4.961925e+00 23 26 46
-7.667220e+00 -3.027646e+00 4.911959e+00 130 146 172
