ply
format ascii 1.0
element vertex 849
property float x
property float y
property float z
property uchar diffuse_red
property uchar diffuse_green
property uchar diffuse_blue
end_header
-2.121254e+01 -1.324212e+00 -2.567775e+00 23 22 25
-3.932362e+01 3.355434e+01 -1.058454e+02 192 190 175
-2.005325e+01 2.336977e+01 -7.004047e+01 130 128 100
-4.701949e+00 -2.955395e+00 4.474992e+00 214 232 217
-3.840869e+01 3.485490e+01 -1.049792e+02 187 187 172
-3.840869e+01 3.485490e+01 -1.049792e+02 187 187 172
-2.006058e+01 2.341498e+01 -7.019175e+01 130 128 100
-2.027375e+01 2.348641e+01 -6.998397e+01 253 242 218
-2.244605e+01 -1.792194e+00 -3.170566e+00 181 191 195
-9.593443e+00 -2.642655e+00 2.337752e+00 149 164 172
-6.898365e+00 -2.564293e+00 3.604290e+00 221 228 232
-2.167733e+01 -1.001710e+00 -2.718967e+00 75 73 72
-7.864122e+00 -2.988398e+00 3.067723e+00 212 209 200
-9.233677e+00 -2.659341e+00 2.620772e+00 66 68 72
-3.361297e+01 3.557130e+01 -1.027774e+02 247 245 233
-2.147814e+01 -2.908274e+00 -2.979531e+00 204 208 212
-6.707211e+00 -3.355566e+00 3.540657e+00 162 170 181
-2.195010e+01 -1.011547e+00 -2.731415e+00 253 254 251
-3.587620e+01 3.788550e+01 -1.023813e+02 190 187 179
-4.978886e+00 -2.037022e+00 4.664940e+00 221 230 231
-1.977685e+01 -1.782912e+00 -1.755416e+00 121 137 146
-4.158466e+00 2.734041e+01 -8.587280e+01 144 140 140
-2.536390e+00 -7.738742e-01 4.879236e+00 239 243 243
7.924912e+00 2.594526e+01 -7.873058e+01 236 237 221
-7.575884e+00 -3.340793e+00 3.011693e+00 8 9 11
-7.574046e+00 -3.341107e+00 3.002977e+00 8 9 11
-6.223245e+00 -2.712415e+00 3.775653e+00 16 17 17
-2.161552e+01 -2.630303e+00 -3.036887e+00 18 20 22
-2.244006e+01 -2.596553e+00 -3.397116e+00 249 250 252
-2.236119e+01 -1.312438e+00 -2.977103e+00 225 232 236
-2.983413e+01 3.101467e+01 -1.016080e+02 163 165 155
7.936540e+00 2.778681e+01 -7.780510e+01 182 180 175
-2.124049e+01 -1.985340e+00 -2.657895e+00 254 255 252
-2.147814e+01 -2.908274e+00 -2.979531e+00 204 208 212
-6.967230e+00 -3.433776e+00 3.424670e+00 162 169 181
-1.012826e+01 -3.045914e+00 1.679584e+00 67 68 68
-2.184357e+01 -2.824728e+00 -3.179106e+00 251 251 250
-2.116483e+01 -2.361735e+00 -2.804593e+00 43 44 46
-2.091283e+01 -1.518820e+00 -2.416909e+00 173 182 190
-2.255148e+01 -1.483609e+00 -3.171939e+00 26 26 30
-2.255148e+01 -1.483609e+00 -3.171939e+00 26 26 30
-2.140986e+01 -1.035132e+00 -2.464843e+00 213 221 225
-2.241432e+01 -4.849969e+00 4.997044e+01 77 67 78
-1.546471e+01 3.952030e-01 8.183400e-01 253 255 255
-3.756925e+01 3.567206e+01 -1.043538e+02 204 198 187
-2.281604e+01 -1.659993e+00 -3.307774e+00 252 251 249
-2.161324e+01 2.791450e+01 -6.994480e+01 94 90 81
-1.903321e+01 -2.734974e+00 -2.601617e+00 10 12 11
-6.775822e+00 -3.017881e+00 3.435243e+00 166 177 183
-6.902340e+00 -3.212857e+00 3.523788e+00 161 173 189
-6.982271e+00 -3.713999e+00 3.309151e+00 158 167 175
-7.412229e+00 -3.110900e+00 3.272054e+00 169 181 189
1.156281e+01 1.640303e+01 -5.347150e+01 250 247 236
1.155957e+01 1.737250e+01 -5.370626e+01 252 253 245
-6.790110e+00 -3.531800e+00 3.479041e+00 125 129 126
-6.574451e+00 -3.227213e+00 3.644961e+00 98 98 96
-7.169597e+00 -2.988583e+00 3.461163e+00 132 137 135
-7.169597e+00 -2.988583e+00 3.461163e+00 132 137 135
-6.450461e+00 -2.878152e+00 3.776490e+00 237 238 240
-6.813601e+00 -2.882586e+00 3.640866e+00 121 125 125
-2.265304e+01 -3.036529e+00 -3.381560e+00 129 122 116
1.479313e+01 1.398022e+01 -4.857410e+01 211 209 122
-6.431382e+00 -4.370138e+00 3.353952e+00 46 49 55
-5.811064e+00 -3.186412e+00 3.901004e+00 41 48 54
-2.189771e+01 -2.561787e+00 -3.159933e+00 205 206 208
-7.001521e+00 -2.241126e+00 3.644421e+00 186 199 211
1.674583e+01 1.358856e+01 -4.709084e+01 111 113 61
1.415253e+01 1.453694e+01 -4.970644e+01 101 85 54
1.541946e+01 1.103645e+01 -4.418334e+01 184 183 127
1.218868e+01 1.198398e+01 -4.663083e+01 206 197 101
1.686078e+01 1.273562e+01 -4.599103e+01 113 110 57
1.428733e+01 1.549716e+01 -5.108810e+01 248 247 141
-9.045404e+00 -1.605508e+00 3.206107e+00 187 207 212
-1.997159e+01 -5.413971e-01 -1.362709e+00 168 190 206
1.127332e+01 1.454643e+01 -5.058681e+01 139 145 80
1.141527e+01 1.180955e+01 -4.648637e+01 232 224 138
1.181041e+01 1.179643e+01 -4.636247e+01 151 136 38
1.377724e+01 1.449741e+01 -4.995828e+01 152 140 72
1.134510e+01 1.592713e+01 -5.319191e+01 245 228 179
1.033377e+01 1.624460e+01 -5.368611e+01 217 214 147
1.080596e+01 1.964352e+01 -5.285988e+01 236 214 164
1.080461e+01 2.083718e+01 -5.243323e+01 253 251 230
1.694012e+01 1.237560e+01 -4.566693e+01 244 228 137
-3.898684e+00 2.748102e+01 -8.586484e+01 253 251 237
1.064883e+01 2.075251e+01 -5.238238e+01 132 121 89
-6.707732e+00 -3.030012e+00 3.315270e+00 166 177 183
-2.188572e+01 -1.863415e+00 -2.837877e+00 179 190 200
2.896478e+01 2.479949e+01 -6.612033e+01 191 190 180
-1.618911e+01 1.301227e+00 4.379332e-01 166 202 238
2.337932e+01 1.257590e+01 -4.310208e+01 179 186 105
-6.992385e+00 -4.199493e+00 3.110963e+00 221 227 228
-9.813312e+00 8.796590e-01 2.695725e+00 215 234 251
2.263698e+01 9.858742e+00 -3.978616e+01 151 151 73
1.196838e+01 2.701259e+01 -7.584040e+01 199 196 183
1.197821e+01 2.702624e+01 -7.588124e+01 199 196 183
-7.330021e+00 -3.508472e+00 3.225065e+00 159 168 175
-7.154168e+00 -3.386088e+00 3.367243e+00 127 128 127
-2.219888e+01 -2.143762e+00 -3.124663e+00 180 189 193
-2.252018e+01 -2.044807e+00 -3.309889e+00 27 28 28
-2.221632e+01 -1.063270e+00 -2.904637e+00 19 19 25
2.393421e+01 1.174153e+01 -4.174648e+01 124 116 69
1.760323e+01 1.327998e+01 -4.642703e+01 204 210 124
-6.961155e+00 -3.434549e+00 3.416177e+00 162 169 181
-6.707211e+00 -3.355566e+00 3.540657e+00 162 170 181
-2.035978e+00 -3.421582e+00 3.481216e+00 45 49 51
-2.305930e+01 -2.612588e+00 -3.508139e+00 138 136 131
-7.138953e+00 -3.192849e+00 3.429164e+00 166 176 185
-2.453610e+01 -1.292113e+00 -3.936113e+00 107 116 118
-2.415824e+01 -1.198870e+00 -3.598011e+00 72 76 75
-2.195010e+01 -1.011547e+00 -2.731415e+00 253 254 251
2.115977e+01 9.439940e+00 -4.010794e+01 202 206 121
1.969625e+01 1.012216e+01 -4.148502e+01 122 131 88
2.075372e+01 1.119657e+01 -4.237951e+01 192 187 128
2.163576e+01 1.133628e+01 -4.226346e+01 158 174 85
2.344252e+01 1.153025e+01 -4.180663e+01 218 215 141
2.219817e+01 1.231075e+01 -4.329197e+01 119 127 78
1.454135e+01 1.340485e+01 -4.771544e+01 100 106 57
2.401355e+01 1.270421e+01 -4.282282e+01 200 198 118
2.401355e+01 1.270421e+01 -4.282282e+01 200 198 118
2.207751e+01 1.382995e+01 -4.545901e+01 188 186 116
-1.959179e+01 -4.044079e+00 -1.123631e+00 198 176 165
-1.015319e+01 -3.045437e+00 1.754912e+00 67 68 68
-2.232194e+01 -2.243721e+00 -3.199216e+00 174 183 187
-3.454288e+00 -1.488017e+00 4.970289e+00 187 171 189
2.162703e+01 9.501758e+00 -4.004190e+01 113 118 63
2.162703e+01 9.501758e+00 -4.004190e+01 113 118 63
2.364873e+01 1.058491e+01 -4.073034e+01 217 211 138
2.413378e+01 1.104461e+01 -4.149820e+01 77 63 54
2.289916e+01 1.121666e+01 -4.174738e+01 230 219 164
2.437700e+01 1.143205e+01 -4.127149e+01 89 91 57
2.298583e+01 1.193411e+01 -4.275863e+01 228 219 132
-2.640744e+01 3.298020e+01 -9.753633e+01 200 196 185
-1.476243e+01 3.915660e-01 1.122067e+00 80 105 134
2.284607e+01 9.298179e+00 -3.938636e+01 213 212 138
2.057053e+01 1.145304e+01 -4.282389e+01 211 207 135
2.125733e+01 1.154886e+01 -4.270747e+01 229 223 139
2.080933e+01 1.327235e+01 -4.515941e+01 232 236 138
1.255420e+01 1.450323e+01 -4.992311e+01 168 189 85
2.228655e+01 1.358538e+01 -4.515814e+01 218 219 115
2.374910e+01 1.360067e+01 -4.460212e+01 227 218 159
-1.587286e+01 4.234111e+00 -1.753687e-01 177 202 218
-6.114465e+00 -3.873028e+00 3.541253e+00 20 19 27
-7.576456e+00 -3.848061e+00 2.973875e+00 250 248 236
-2.031966e+01 -2.391460e+00 -2.264963e+00 105 106 106
-5.989876e+00 -2.848877e+00 3.838826e+00 27 31 47
-6.448905e+00 -2.322597e+00 3.813032e+00 28 29 36
-9.998483e+00 -1.507030e+00 2.751621e+00 231 240 240
1.804885e+01 1.053961e+01 -4.280116e+01 231 223 152
1.778455e+01 1.059015e+01 -4.294197e+01 212 208 138
1.686078e+01 1.273562e+01 -4.599103e+01 113 110 57
2.255933e+01 1.263485e+01 -4.341109e+01 220 215 138
2.345464e+01 1.276477e+01 -4.327483e+01 137 142 73
2.345464e+01 1.276477e+01 -4.327483e+01 137 142 73
2.024292e+01 1.353627e+01 -4.587193e+01 226 213 139
2.011369e+01 1.384028e+01 -4.618834e+01 112 121 60
2.255772e+01 1.379640e+01 -4.528404e+01 161 156 89
1.812693e+01 1.471112e+01 -4.823422e+01 110 105 63
1.428733e+01 1.549716e+01 -5.108810e+01 248 247 141
1.478044e+01 1.602478e+01 -5.243860e+01 201 200 123
1.163344e+01 1.702401e+01 -5.337225e+01 255 255 251
-2.056786e+01 2.576343e+01 -6.961206e+01 255 253 246
-6.436456e+00 -4.214751e+00 3.366157e+00 132 139 146
-6.436456e+00 -4.214751e+00 3.366157e+00 132 139 146
-2.169820e+01 -2.879586e+00 -3.107964e+00 208 213 211
-2.211952e+01 -2.791132e+00 -3.223736e+00 223 229 225
-1.819143e+01 -3.410834e+00 2.476446e+01 158 157 150
1.212481e+01 1.232336e+01 -4.707841e+01 152 127 66
1.129354e+01 1.407292e+01 -5.009632e+01 243 242 130
1.081607e+01 1.460256e+01 -5.105886e+01 233 232 131
1.740351e+01 1.393074e+01 -4.736189e+01 220 225 135
1.428446e+01 1.470798e+01 -4.963020e+01 236 223 101
1.408570e+01 1.492012e+01 -5.015846e+01 238 233 130
2.900809e+01 2.101123e+01 -6.728684e+01 159 166 131
-7.506674e+00 -4.005544e+00 2.957310e+00 146 144 144
-7.868198e+00 -3.534677e+00 2.884577e+00 199 197 184
-6.027433e+00 -2.837258e+00 3.745555e+00 67 76 86
-2.267599e+01 -1.594730e+00 -3.369734e+00 136 131 111
-2.241279e+01 -1.113960e+00 -3.083044e+00 203 196 170
-2.521441e+01 2.819487e+00 -4.206398e+00 249 254 251
-1.142967e+01 2.082375e+00 2.053459e+00 190 204 209
-1.628922e+01 4.097533e+00 -3.214871e-01 96 120 135
1.113191e+01 1.816948e+01 -5.299232e+01 255 255 223
-2.150939e+01 2.616974e+01 -7.058445e+01 95 90 84
-1.209604e+01 -8.513593e-01 5.413334e+00 189 210 224
-1.371785e+01 -4.902840e-01 1.359547e+00 194 210 222
-1.862804e+01 5.226271e-01 -1.636415e+00 164 187 211
-2.187925e+01 -1.860317e+00 -2.656637e+00 179 190 200
-2.181445e+01 1.429828e+00 -2.160581e+00 191 214 237
3.522846e+01 2.198540e+01 -6.269748e+01 234 232 219
-4.417164e+00 -3.024042e+00 4.509815e+00 171 183 190
-1.209420e+01 1.379552e+00 2.789195e+00 255 255 255
3.895764e+01 2.105250e+01 -6.117953e+01 135 139 138
2.348217e+01 1.122693e+01 -4.232890e+01 179 170 109
-2.845353e+01 3.072944e+01 -9.914713e+01 150 152 147
-3.418660e+01 3.244383e+01 -1.031062e+02 180 177 167
-6.730283e+00 -3.983804e+00 3.287281e+00 11 10 11
-2.028664e+01 -1.983310e+00 -2.146217e+00 65 69 68
-7.219159e+00 -2.388347e+00 3.471975e+00 8 12 11
-6.663492e+00 -2.366990e+00 3.656580e+00 14 14 19
2.404853e+01 1.108512e+01 -4.093665e+01 113 109 62
2.511700e+01 1.265773e+01 -4.282661e+01 211 202 139
-1.215400e+01 3.900557e+00 2.268817e-01 105 128 167
4.006014e+01 1.961314e+01 -5.731743e+01 221 219 205
4.027442e+01 2.056501e+01 -6.063722e+01 135 137 138
3.784385e+01 2.091081e+01 -6.246288e+01 219 215 203
-2.962731e+01 3.196386e+01 -1.003116e+02 246 243 232
3.625987e+01 2.188097e+01 -6.293565e+01 233 231 218
3.775433e+01 2.253103e+01 -6.198978e+01 214 213 195
3.452300e+01 2.451169e+01 -6.283889e+01 162 158 155
3.618403e+01 2.441728e+01 -6.202788e+01 148 152 151
-6.394269e+00 -4.116250e+00 3.469256e+00 221 225 223
-6.506263e+00 -3.777128e+00 3.332805e+00 151 158 164
-6.281882e+00 -3.435182e+00 3.650452e+00 209 215 219
-2.184748e+01 -1.835455e+00 -2.817133e+00 182 189 198
-9.122085e+00 -2.443524e+00 2.792954e+00 140 147 151
-2.255815e+01 -1.074890e+00 -3.061412e+00 254 255 254
-2.255997e+01 -1.073024e+00 -3.081445e+00 254 255 254
-1.146388e+01 1.967577e+00 1.980001e+00 75 92 113
2.740051e+01 8.932923e+00 -3.680500e+01 198 181 121
-7.292093e+00 -2.629740e+00 3.181068e+00 194 204 211
-2.065719e+01 -1.025580e+00 -1.973509e+00 74 80 83
2.569186e+01 9.201175e+00 -3.757519e+01 128 134 78
2.574213e+01 9.216549e+00 -3.765514e+01 128 134 78
2.114438e+01 1.053601e+01 -4.114191e+01 166 164 90
2.445956e+01 1.115504e+01 -4.045374e+01 188 194 93
1.341244e+01 1.277937e+01 -4.678633e+01 192 210 96
2.773882e+01 1.138365e+01 -3.936608e+01 202 190 120
1.096272e+01 1.704920e+01 -5.379422e+01 105 97 74
3.872771e+01 1.762697e+01 -5.448858e+01 183 189 102
-2.735651e+01 3.119337e+01 -9.979989e+01 229 226 211
-2.104818e+01 -8.117357e+00 1.360611e+01 132 128 120
-6.601369e+00 -4.260087e+00 3.267935e+00 140 151 159
-5.838335e+00 -3.869211e+00 3.736939e+00 31 32 42
-7.138652e+00 -3.193203e+00 3.428639e+00 166 176 185
-6.965227e+00 -2.984850e+00 3.538070e+00 168 178 187
-6.965227e+00 -2.984850e+00 3.538070e+00 168 178 187
-7.774454e+00 -2.530213e+00 3.248280e+00 159 159 156
-7.774454e+00 -2.530213e+00 3.248280e+00 159 159 156
-2.908554e+00 -1.426819e+00 4.990589e+00 255 255 252
-1.546727e+01 5.962721e-01 8.273833e-01 244 250 251
-1.249697e+01 1.122504e+00 3.102263e+00 179 193 201
2.531278e+01 7.850617e+00 -3.560676e+01 153 166 102
2.387538e+01 8.034747e+00 -3.651998e+01 142 140 90
2.531873e+01 8.639820e+00 -3.697937e+01 211 208 147
2.421657e+01 9.638383e+00 -3.886772e+01 202 199 120
1.847012e+01 1.100918e+01 -4.299289e+01 215 208 126
2.535650e+01 1.039413e+01 -3.949457e+01 198 204 108
-1.361372e+01 4.625452e+00 -5.956956e+00 190 193 154
1.424991e+01 1.402696e+01 -4.891770e+01 199 215 110
-4.010492e+01 2.787291e+01 -1.032690e+02 124 121 75
3.041451e+01 1.427550e+01 -4.346195e+01 199 199 111
4.024781e+01 1.887764e+01 -5.767725e+01 81 88 68
3.996410e+01 1.976035e+01 -6.059044e+01 212 213 192
-2.485709e+01 3.226917e+01 -9.638079e+01 201 199 188
1.062169e+01 2.072261e+01 -5.283970e+01 119 110 104
-2.549648e+01 3.539324e+01 -9.679834e+01 237 235 222
-2.206815e+01 -1.718299e+00 -2.848960e+00 182 193 197
-2.100778e+01 -1.564950e+00 -2.365647e+00 205 214 220
-7.000077e+00 -2.240214e+00 3.641139e+00 186 199 211
-2.028266e+01 9.970392e-01 -1.144723e+00 79 101 133
2.090910e+01 8.675340e+00 -3.873830e+01 210 212 133
1.778328e+01 9.557986e+00 -4.154197e+01 197 197 122
2.687448e+01 9.037399e+00 -3.716667e+01 133 131 62
2.526711e+01 9.666249e+00 -3.859698e+01 115 110 70
2.480570e+01 1.015143e+01 -3.941532e+01 106 111 70
-3.428008e+01 1.914576e+01 -7.531309e+01 86 92 56
2.731798e+01 1.045286e+01 -3.875515e+01 210 206 111
2.532111e+01 1.089274e+01 -3.996927e+01 86 74 43
2.758326e+01 1.074218e+01 -3.883561e+01 112 101 44
2.716630e+01 1.087871e+01 -3.887419e+01 194 198 107
2.716630e+01 1.087871e+01 -3.887419e+01 194 198 107
2.531809e+01 1.123811e+01 -4.035726e+01 176 168 93
1.782063e+01 1.236664e+01 -4.553309e+01 234 223 144
2.899977e+01 1.140570e+01 -3.899725e+01 187 177 99
-3.173997e+01 2.004790e+01 -7.362003e+01 72 73 53
-4.371617e+01 3.175198e+01 -1.110150e+02 182 178 166
-1.608244e+01 4.237685e+00 -2.261309e-01 176 203 221
4.059082e+01 1.944422e+01 -5.860364e+01 220 224 202
-7.592491e+00 -4.845230e+00 2.960680e+00 93 95 93
-1.017098e+01 -4.248661e+00 2.872550e-01 84 83 78
-2.174882e+01 -2.636782e+00 -3.231744e+00 19 25 21
-7.194967e+00 -2.529491e+00 3.436531e+00 24 30 45
2.276014e+01 8.023286e+00 -3.695109e+01 168 165 115
2.736721e+01 9.421956e+00 -3.696452e+01 146 150 91
2.243900e+01 1.010557e+01 -3.990711e+01 118 115 73
-3.392250e+01 1.871740e+01 -7.474113e+01 193 190 135
-3.912468e+01 2.006522e+01 -7.981296e+01 246 210 161
2.462153e+01 1.069709e+01 -4.017461e+01 187 180 110
2.792568e+01 1.034931e+01 -3.844164e+01 193 193 95
-4.075136e+01 2.072181e+01 -7.943052e+01 89 87 45
2.669720e+01 1.112223e+01 -3.933893e+01 204 207 124
2.675616e+01 1.114418e+01 -3.943282e+01 204 207 124
2.457471e+01 1.154330e+01 -4.098187e+01 211 216 127
-3.062161e+01 1.944060e+01 -7.178622e+01 138 128 103
2.765294e+01 1.185190e+01 -4.039313e+01 178 177 99
2.885426e+01 1.169837e+01 -3.912725e+01 106 87 41
2.065890e+01 1.320905e+01 -4.487700e+01 232 236 138
2.701158e+01 1.344545e+01 -4.260047e+01 211 194 124
2.574433e+01 1.404803e+01 -4.402106e+01 187 149 75
-1.581338e+01 4.096099e+00 -1.201833e-01 60 73 86
-2.152592e+01 2.647545e+01 -7.082337e+01 99 92 84
-2.163288e+01 2.744545e+01 -7.050258e+01 109 101 86
-2.404269e+01 -6.581762e+00 7.368854e+00 168 169 163
-2.141697e+01 -3.675175e+00 -2.961771e+00 118 118 116
-2.305528e+01 -2.619730e+00 -3.469123e+00 144 142 137
-2.125074e+01 -2.485509e+00 -2.925395e+00 53 51 73
-6.342546e+00 -3.225279e+00 3.691515e+00 99 102 116
-2.026728e+01 -1.541611e+00 -2.047052e+00 75 81 81
-2.442866e+00 -1.486843e+00 4.808635e+00 254 254 253
-2.450068e+00 -7.282457e-01 4.872630e+00 107 107 142
-1.556304e+01 4.692292e-01 7.946421e-01 150 158 182
2.379153e+01 7.591266e+00 -3.565765e+01 224 229 231
2.487531e+01 7.522163e+00 -3.519048e+01 218 214 212
2.627339e+01 7.444131e+00 -3.434514e+01 134 124 113
2.589241e+01 7.515101e+00 -3.466475e+01 114 99 100
-1.141383e+01 1.827916e+00 2.113699e+00 62 76 126
2.102379e+01 1.007268e+01 -4.089453e+01 211 206 134
2.503086e+01 9.801404e+00 -3.867741e+01 190 186 102
1.232309e+01 1.146360e+01 -4.594983e+01 230 226 126
2.653157e+01 1.007294e+01 -3.820029e+01 129 129 72
1.685328e+01 1.148121e+01 -4.468692e+01 218 218 111
2.559917e+01 1.046418e+01 -3.934169e+01 154 154 84
1.852538e+01 1.139160e+01 -4.341544e+01 219 214 136
1.310340e+01 1.204901e+01 -4.626078e+01 210 214 130
2.913368e+01 1.049872e+01 -3.794013e+01 148 140 71
1.464851e+01 1.243619e+01 -4.651480e+01 205 187 133
2.568135e+01 1.109623e+01 -3.982860e+01 206 211 120
2.415365e+01 1.187234e+01 -4.153756e+01 174 185 95
1.416516e+01 1.369337e+01 -4.861162e+01 223 215 130
2.720463e+01 1.209662e+01 -4.055615e+01 177 170 101
1.430744e+01 1.415450e+01 -4.872607e+01 211 214 121
-4.030295e+01 2.831117e+01 -1.043139e+02 87 87 37
-4.313268e+01 2.965544e+01 -1.070882e+02 108 121 69
2.554994e+01 1.368173e+01 -4.380917e+01 219 188 97
-2.019086e+01 2.278807e+01 -7.017355e+01 255 249 246
-2.016327e+01 -8.959891e+00 1.684183e+01 83 85 84
-2.026202e+01 -8.584928e+00 1.542372e+01 173 170 158
-9.939696e+00 -2.780461e+00 2.306024e+00 48 53 56
-9.980722e+00 -1.561965e+00 2.742528e+00 219 230 224
-7.029946e+00 1.685094e+00 7.054989e-01 86 89 110
2.200632e+01 8.546043e+00 -3.767088e+01 128 143 69
2.323863e+01 9.151196e+00 -3.841537e+01 104 109 52
1.992546e+01 9.938647e+00 -4.106344e+01 190 185 130
1.973425e+01 1.003366e+01 -4.132699e+01 110 118 65
2.057460e+01 9.990683e+00 -4.079748e+01 112 103 46
2.402107e+01 9.791507e+00 -3.902352e+01 155 143 62
1.664635e+01 1.078226e+01 -4.337592e+01 221 215 135
-3.940630e+01 1.908208e+01 -7.822702e+01 122 104 74
2.617180e+01 9.868862e+00 -3.852662e+01 220 202 139
1.271183e+01 1.150558e+01 -4.538927e+01 176 158 108
1.394620e+01 1.166395e+01 -4.576213e+01 235 223 147
1.321704e+01 1.170683e+01 -4.562623e+01 234 229 149
2.857876e+01 1.004009e+01 -3.746488e+01 140 141 64
-4.055923e+01 2.005637e+01 -7.912721e+01 233 242 175
2.719166e+01 1.032989e+01 -3.824975e+01 209 201 111
2.642904e+01 1.064200e+01 -3.909434e+01 217 216 140
-4.018329e+01 2.054757e+01 -7.947687e+01 61 66 25
2.382279e+01 1.153189e+01 -4.158728e+01 92 79 50
2.344360e+01 1.160627e+01 -4.190927e+01 221 216 148
-3.243446e+01 1.961865e+01 -7.347707e+01 189 187 140
-3.243446e+01 1.961865e+01 -7.347707e+01 189 187 140
-3.267044e+01 1.993907e+01 -7.396421e+01 72 67 41
1.467137e+01 1.332720e+01 -4.760228e+01 111 112 70
1.661224e+01 1.320356e+01 -4.667434e+01 227 233 146
1.128028e+01 1.406115e+01 -5.006093e+01 243 242 130
-3.104769e+01 2.027371e+01 -7.302049e+01 55 55 29
2.858283e+01 1.189911e+01 -3.975688e+01 209 204 139
-2.994031e+01 2.026625e+01 -7.269256e+01 250 239 167
-2.994031e+01 2.026625e+01 -7.269256e+01 250 239 167
-4.343445e+01 2.829035e+01 -1.053319e+02 194 173 112
2.640260e+01 1.277028e+01 -4.177816e+01 196 199 120
2.627293e+01 1.310368e+01 -4.232810e+01 148 141 66
2.617926e+01 1.306759e+01 -4.217122e+01 148 141 66
2.911399e+01 1.300075e+01 -4.115643e+01 134 122 52
2.112535e+01 1.442017e+01 -4.679073e+01 222 214 134
2.112535e+01 1.442017e+01 -4.679073e+01 222 214 134
-4.389565e+01 3.001168e+01 -1.072825e+02 214 210 184
-3.880736e+01 2.921418e+01 -1.039604e+02 234 229 198
2.859635e+01 1.358715e+01 -4.242775e+01 154 146 81
-1.569002e+01 4.039980e+00 -9.377301e-02 113 130 140
-2.061760e+01 -8.898423e+00 1.664736e+01 71 80 41
-2.052629e+01 -8.587340e+00 1.544713e+01 94 95 90
-2.719679e+01 -4.269893e+00 -1.669808e+00 72 75 73
-7.447346e+00 -4.063955e+00 2.985156e+00 139 137 137
-7.839933e+00 -2.967107e+00 3.056529e+00 231 225 212
-7.438485e+00 -2.905526e+00 3.265878e+00 108 122 133
-5.984200e+00 -2.945147e+00 3.901459e+00 183 196 204
-6.018526e+00 -2.833337e+00 3.727937e+00 67 76 86
-1.595919e+01 -8.830809e-01 3.386061e-01 33 39 68
-3.467936e+00 -1.411997e+00 5.032994e+00 255 245 114
2.169720e+01 7.967767e+00 -3.694142e+01 161 154 130
2.498210e+01 7.539805e+00 -3.471335e+01 154 148 115
-4.024527e+01 1.765845e+01 -7.688968e+01 197 187 132
2.416443e+01 9.260901e+00 -3.818083e+01 152 160 75
1.671128e+01 1.026219e+01 -4.283358e+01 157 150 79
1.799874e+01 1.072554e+01 -4.296476e+01 101 91 52
-3.885581e+01 1.947208e+01 -7.933346e+01 242 233 177
1.663943e+01 1.115884e+01 -4.401794e+01 103 99 41
1.665009e+01 1.116511e+01 -4.403942e+01 103 99 41
-3.895775e+01 1.986694e+01 -7.954743e+01 254 227 175
-3.295123e+01 1.821643e+01 -7.219418e+01 219 214 165
-3.295123e+01 1.821643e+01 -7.219418e+01 219 214 165
2.152716e+01 1.097469e+01 -4.175713e+01 160 165 78
-3.371362e+01 1.921801e+01 -7.466341e+01 226 230 172
2.762266e+01 1.062269e+01 -3.875565e+01 96 87 30
-3.148966e+01 1.867119e+01 -7.187001e+01 73 76 37
-3.148966e+01 1.867119e+01 -7.187001e+01 73 76 37
2.483891e+01 1.105367e+01 -4.047737e+01 111 110 45
1.736101e+01 1.215408e+01 -4.519286e+01 234 227 111
1.266249e+01 1.274558e+01 -4.763752e+01 92 83 41
-3.154522e+01 1.910702e+01 -7.249869e+01 71 69 31
-3.303951e+01 1.979023e+01 -7.428455e+01 66 59 27
1.585524e+01 1.297913e+01 -4.685677e+01 152 138 83
1.585524e+01 1.297913e+01 -4.685677e+01 152 138 83
-3.181079e+01 1.987717e+01 -7.350433e+01 55 63 26
1.640386e+01 1.317142e+01 -4.673581e+01 117 117 49
1.640386e+01 1.317142e+01 -4.673581e+01 117 117 49
-2.990319e+01 1.958729e+01 -7.162289e+01 233 243 146
2.017740e+01 1.283325e+01 -4.485712e+01 141 143 55
-3.034487e+01 2.004623e+01 -7.241729e+01 244 251 184
-3.042662e+01 2.054165e+01 -7.293349e+01 224 232 179
-3.819858e+01 2.790294e+01 -1.027765e+02 216 235 160
-4.397105e+01 2.897105e+01 -1.065684e+02 80 100 26
-4.057859e+01 2.844534e+01 -1.042667e+02 212 241 125
-2.817145e+01 2.120376e+01 -7.421570e+01 128 123 71
-4.107423e+01 2.910005e+01 -1.057978e+02 77 89 21
2.360216e+01 1.382139e+01 -4.497315e+01 223 212 149
-3.720775e+01 2.846165e+01 -1.033768e+02 251 245 231
1.994426e+01 1.440751e+01 -4.715372e+01 141 145 57
2.904782e+01 2.101558e+01 -6.695594e+01 244 248 220
-2.042970e+01 2.592224e+01 -6.957149e+01 234 227 215
-2.042970e+01 2.592224e+01 -6.957149e+01 234 227 215
-2.175430e+01 2.720095e+01 -7.070202e+01 93 83 82
-9.431450e+00 -3.615207e+00 2.825225e+00 25 25 28
-9.549938e+00 -2.348264e+00 2.729144e+00 132 147 157
-2.075069e+01 2.585871e+00 -2.300774e+00 93 113 124
-2.075069e+01 2.585871e+00 -2.300774e+00 93 113 124
1.430130e+01 1.363943e+01 -4.713330e+01 212 212 127
-5.153859e+00 -1.667848e+00 4.722472e+00 255 255 253
-7.250164e+00 -3.820698e+00 3.084588e+00 10 11 11
-6.247311e+00 -3.759799e+00 3.516543e+00 13 13 12
-6.909051e+00 -3.215082e+00 3.591748e+00 161 173 189
-7.568652e+00 -2.771666e+00 3.170402e+00 10 10 10
1.738117e+01 1.093403e+01 -4.347914e+01 210 207 108
-1.273872e+01 -3.895184e+00 -1.105240e+00 105 103 85
-7.868377e+00 -2.975437e+00 3.098940e+00 212 209 200
-2.102511e+01 -1.826207e+00 -2.619160e+00 21 21 20
-1.723973e+01 -9.281707e+00 1.836266e+01 79 75 79
-7.331468e+00 -3.508794e+00 3.232412e+00 159 168 175
-2.235073e+01 -8.358879e-01 -2.799297e+00 183 188 191
-2.095896e+01 2.365594e+00 -1.914368e+00 83 101 116
2.192455e+01 8.579629e+00 -3.787404e+01 156 155 101
-1.792341e+01 -8.548457e+00 1.553262e+01 108 110 95
-1.792341e+01 -8.548457e+00 1.553262e+01 108 110 95
-7.545087e+00 -3.906438e+00 2.982625e+00 226 226 218
-7.330465e+00 -3.274866e+00 3.342299e+00 167 176 181
-5.814404e+00 -3.183556e+00 3.918319e+00 41 48 54
-6.665724e+00 -3.047426e+00 3.593708e+00 166 173 186
-2.112629e+01 2.268838e+00 -1.855268e+00 183 211 234
1.446876e+01 1.021521e+01 -4.342157e+01 239 234 157
2.183907e+01 9.609527e+00 -3.978000e+01 197 196 106
1.213121e+01 1.119141e+01 -4.521952e+01 228 228 118
-2.101278e+01 -1.563247e+00 -2.412107e+00 205 214 220
-6.400770e+00 -2.429714e+00 3.872613e+00 193 208 217
2.051809e+01 7.241517e+00 -3.616858e+01 212 216 214
1.972785e+01 7.351388e+00 -3.666636e+01 211 213 210
1.835966e+01 8.291326e+00 -3.890311e+01 230 231 228
1.314893e+01 1.027746e+01 -4.415248e+01 221 215 133
1.127491e+01 1.121402e+01 -4.560423e+01 224 215 119
1.126577e+01 1.121242e+01 -4.558867e+01 224 215 119
1.994482e+01 1.096833e+01 -4.227209e+01 133 141 71
1.433687e+01 1.296031e+01 -4.742539e+01 227 211 148
2.746919e+01 1.143480e+01 -3.979031e+01 123 130 57
1.503351e+01 1.334179e+01 -4.763154e+01 213 224 126
-2.222545e+01 -3.524908e+00 -3.534037e+00 20 25 28
-6.764486e+00 -3.707143e+00 3.457314e+00 151 159 166
1.946568e+01 7.400145e+00 -3.700821e+01 207 215 209
-1.141743e+01 1.854341e+00 2.093881e+00 62 76 122
1.709766e+01 9.760017e+00 -4.221927e+01 220 212 151
1.626869e+01 9.785721e+00 -4.216336e+01 225 223 146
1.392345e+01 1.053982e+01 -4.425295e+01 230 220 159
1.850237e+01 1.056382e+01 -4.255942e+01 117 118 62
7.376261e+00 1.281757e+01 -4.975347e+01 218 216 130
7.376261e+00 1.281757e+01 -4.975347e+01 218 216 130
2.063142e+01 1.147347e+01 -4.297101e+01 211 207 135
2.047732e+01 1.168639e+01 -4.322473e+01 166 169 82
2.047732e+01 1.168639e+01 -4.322473e+01 166 169 82
1.794112e+01 1.226710e+01 -4.496481e+01 158 146 86
-6.345839e+00 -3.220427e+00 3.701996e+00 99 102 116
-3.296136e+01 -1.240262e+00 -1.394906e+01 57 67 77
-7.312998e+00 -2.941564e+00 3.401823e+00 172 180 184
-2.230647e+01 -1.934277e+00 -3.038414e+00 211 212 217
-1.786197e+00 -2.478898e+00 4.741300e+00 156 97 87
1.166151e+01 6.398849e-01 -1.458630e+01 53 50 57
-1.556414e+01 4.661738e-01 8.168497e-01 150 158 182
-2.420738e+01 2.568908e+00 -3.353432e+00 55 81 110
1.795808e+01 8.385630e+00 -3.952276e+01 233 235 235
1.664758e+01 8.906439e+00 -4.043209e+01 130 115 82
1.559740e+01 9.188993e+00 -4.112805e+01 252 226 180
1.278076e+01 1.042964e+01 -4.434979e+01 222 216 120
1.595000e+01 1.039457e+01 -4.295338e+01 234 221 152
8.556494e+00 1.162300e+01 -4.713808e+01 232 237 145
2.015455e+01 1.052595e+01 -4.190650e+01 220 221 141
1.557322e+01 1.215905e+01 -4.569874e+01 147 155 79
1.184685e+01 1.275323e+01 -4.792984e+01 227 229 110
1.184685e+01 1.275323e+01 -4.792984e+01 227 229 110
2.889902e+01 1.071152e+01 -3.831071e+01 204 187 109
-1.558161e+01 1.752715e+01 -6.597012e+01 117 128 121
9.476597e+00 1.367531e+01 -4.988103e+01 144 136 73
1.166934e+01 1.359375e+01 -4.905698e+01 189 190 106
2.237344e+01 1.230130e+01 -4.310934e+01 122 126 69
2.880193e+01 2.122458e+01 -6.723682e+01 249 250 244
2.880193e+01 2.122458e+01 -6.723682e+01 249 250 244
-5.416386e+00 -4.116764e+00 3.879436e+00 79 80 75
-6.484341e+00 -2.798952e+00 3.733644e+00 161 158 165
-2.179631e+01 -1.158710e+00 -2.717963e+00 251 253 251
-6.999790e+00 1.600581e+00 7.535746e-01 203 211 214
1.910076e+01 8.077744e+00 -3.788415e+01 227 229 231
1.703710e+01 9.003006e+00 -4.055244e+01 135 125 87
1.206113e+01 1.043276e+01 -4.446775e+01 218 226 120
1.206113e+01 1.043276e+01 -4.446775e+01 218 226 120
2.551702e+01 9.309978e+00 -3.799204e+01 211 195 129
2.061594e+01 1.000661e+01 -4.089004e+01 112 103 46
2.061594e+01 1.000661e+01 -4.089004e+01 112 103 46
1.127515e+01 1.156912e+01 -4.617274e+01 152 141 84
1.127515e+01 1.156912e+01 -4.617274e+01 152 141 84
1.783994e+01 1.109093e+01 -4.356629e+01 224 218 120
1.181152e+01 1.179774e+01 -4.636620e+01 151 136 38
2.593085e+01 1.028223e+01 -3.896394e+01 201 194 122
1.188543e+01 1.200850e+01 -4.650752e+01 223 231 125
7.671653e+00 1.292879e+01 -4.947418e+01 142 162 64
1.247016e+01 1.255536e+01 -4.740414e+01 183 161 103
7.359449e+00 1.330769e+01 -5.014309e+01 237 220 152
1.116240e+01 1.289988e+01 -4.810000e+01 222 228 114
6.878106e+00 1.356192e+01 -5.095064e+01 251 251 142
1.882007e+01 1.222186e+01 -4.461742e+01 208 186 118
9.431387e+00 1.334230e+01 -4.935091e+01 220 221 115
9.431387e+00 1.334230e+01 -4.935091e+01 220 221 115
1.240958e+01 1.334450e+01 -4.808743e+01 207 216 107
-7.494919e+00 -3.834665e+00 2.929302e+00 98 92 111
-2.157348e+01 -2.932562e+00 -3.018440e+00 213 215 219
-7.866545e+00 -3.547900e+00 3.115533e+00 149 149 140
-2.127297e+01 -2.699843e+00 -2.866636e+00 253 254 255
-7.700028e+00 -2.891287e+00 3.009985e+00 156 151 144
-7.401918e+00 -2.386266e+00 3.292414e+00 152 139 131
-2.168919e+01 -1.277941e+00 -2.622740e+00 157 168 177
-2.241586e+01 -1.001163e+00 -3.096677e+00 103 96 82
-1.983577e+01 1.973867e+00 -1.245569e+00 185 200 214
1.804845e+01 7.364346e+00 -3.787279e+01 144 126 113
1.918483e+01 8.274748e+00 -3.836702e+01 167 165 129
1.779323e+01 8.748773e+00 -4.005312e+01 112 111 74
9.405330e+00 1.085010e+01 -4.611124e+01 156 150 86
1.936327e+01 1.000465e+01 -4.167330e+01 218 219 148
9.293280e+00 1.110749e+01 -4.621357e+01 114 112 49
7.696900e+00 1.147361e+01 -4.759925e+01 96 89 48
1.560138e+01 1.092772e+01 -4.369940e+01 142 144 73
7.812060e+00 1.216995e+01 -4.851918e+01 132 137 60
1.548471e+01 1.190278e+01 -4.539514e+01 239 234 159
1.548471e+01 1.190278e+01 -4.539514e+01 239 234 159
1.130078e+01 1.279740e+01 -4.789867e+01 219 224 128
-1.521089e+01 1.685796e+01 -6.480678e+01 198 211 180
2.792719e+01 1.072530e+01 -3.849996e+01 159 154 74
1.710835e+01 1.228279e+01 -4.536746e+01 233 227 122
8.106626e+00 1.348776e+01 -5.010878e+01 112 110 40
8.317100e+00 1.366246e+01 -5.038776e+01 224 216 137
2.358270e+01 1.209559e+01 -4.260811e+01 149 149 86
1.551690e+01 1.326499e+01 -4.719130e+01 136 132 60
1.629376e+01 1.355505e+01 -4.771655e+01 241 239 154
-2.070970e+01 2.447922e+01 -6.985788e+01 245 238 222
-9.117316e+00 -3.593923e+00 1.855621e+00 24 28 33
-1.482045e+01 3.196335e+00 -2.384115e+00 50 68 87
-1.993763e+01 -4.688567e+00 -3.261659e-01 113 116 114
-2.723841e+01 6.292884e-01 -5.338556e+00 150 190 224
-7.248296e+00 -3.826032e+00 3.081998e+00 13 15 14
-6.243722e+00 -3.761579e+00 3.494401e+00 13 13 12
-1.025494e+01 -2.591989e+00 2.326962e+00 154 167 177
-7.599067e+00 -2.765987e+00 3.238383e+00 11 13 10
-2.482837e+01 -3.148368e+00 -5.530722e+00 116 117 109
-2.216442e+01 -2.489250e+00 -3.239434e+00 19 22 21
-6.533504e+00 -3.765993e+00 3.371209e+00 147 156 167
-2.219905e+01 -2.146639e+00 -3.124135e+00 170 181 188
-6.983243e+00 -3.700590e+00 3.318800e+00 156 166 175
-2.090075e+01 -2.213918e+00 -2.510365e+00 176 185 190
-6.240067e+00 -3.450619e+00 3.574180e+00 199 204 207
-1.573051e+01 -2.078552e+00 -1.316605e-01 132 148 163
3.568033e+01 1.006679e+01 -3.480296e+01 193 197 86
3.047311e+01 1.231937e+01 -3.976805e+01 126 131 63
3.047311e+01 1.231937e+01 -3.976805e+01 126 131 63
-2.156138e+01 -2.018616e+00 -2.716785e+00 152 157 173
-2.163087e+01 -1.614886e+00 -2.659436e+00 142 147 152
-2.201239e+01 -1.536132e+00 -2.802647e+00 148 153 158
-2.145020e+01 -1.470542e+00 -2.521080e+00 254 254 255
-6.812998e+00 -2.882566e+00 3.641175e+00 117 125 124
-2.273537e+01 -8.743837e-01 -2.914851e+00 85 85 85
-6.245014e+00 -2.223864e+00 4.079361e+00 30 34 40
3.465160e+01 1.062184e+01 -3.591823e+01 204 203 98
3.326158e+01 1.101516e+01 -3.746451e+01 143 155 67
-5.958428e+00 -3.126397e+00 3.783336e+00 17 17 16
-6.133184e+00 -2.487649e+00 3.997870e+00 60 68 74
3.091895e+01 7.331127e+00 -3.237631e+01 89 94 65
3.063091e+01 8.529753e+00 -3.428974e+01 202 199 135
3.135349e+01 8.891661e+00 -3.456863e+01 104 113 63
3.135349e+01 8.891661e+00 -3.456863e+01 104 113 63
2.153329e+01 1.128344e+01 -4.210621e+01 148 163 77
3.057371e+01 1.013865e+01 -3.672522e+01 200 214 100
2.459582e+01 1.118524e+01 -4.065272e+01 174 180 76
3.683538e+01 9.951463e+00 -3.473205e+01 203 207 97
2.992955e+01 1.149746e+01 -3.903215e+01 203 184 117
3.243181e+01 1.115976e+01 -3.745382e+01 201 203 103
-2.174610e+01 -2.299622e+00 -2.896228e+00 174 182 188
-2.174610e+01 -2.299622e+00 -2.896228e+00 174 182 188
-1.530617e+01 4.979139e-01 6.783952e-01 129 142 159
3.169298e+01 6.652655e+00 -3.121026e+01 211 216 219
2.552412e+01 9.754652e+00 -3.835226e+01 212 204 123
2.674622e+01 9.759558e+00 -3.821899e+01 192 191 119
3.006666e+01 9.612436e+00 -3.609414e+01 104 105 44
2.484244e+01 1.053810e+01 -3.989042e+01 239 224 180
2.594492e+01 1.166742e+01 -4.051791e+01 199 192 104
-7.105423e+00 -2.195463e+00 3.591498e+00 27 30 29
-1.604136e+01 -9.336580e-01 2.918711e-01 204 216 224
-2.691585e+01 7.842984e-01 -4.794143e+00 110 130 155
2.636946e+01 7.776240e+00 -3.471871e+01 184 193 108
3.233476e+01 7.034267e+00 -3.166232e+01 89 82 53
3.059374e+01 7.636015e+00 -3.305472e+01 118 120 81
2.840181e+01 9.491793e+00 -3.683889e+01 123 128 66
2.994935e+01 9.779504e+00 -3.641196e+01 117 127 75
2.994935e+01 9.779504e+00 -3.641196e+01 117 127 75
2.545873e+01 1.093980e+01 -4.017749e+01 79 64 37
2.685492e+01 1.084507e+01 -3.928448e+01 101 107 62
3.470317e+01 1.018040e+01 -3.548915e+01 120 120 53
3.553178e+01 1.022003e+01 -3.521468e+01 210 216 93
3.614565e+01 1.025246e+01 -3.515056e+01 215 214 96
3.663224e+01 1.037984e+01 -3.502124e+01 120 120 65
2.622128e+01 1.237171e+01 -4.189687e+01 126 145 57
-1.611514e+01 5.762886e+00 -8.563696e+00 182 207 163
3.087894e+01 1.190355e+01 -3.884486e+01 139 134 79
2.228961e+01 1.358743e+01 -4.516581e+01 211 212 111
-3.513505e+00 -1.758220e+00 4.931680e+00 200 220 247
-3.513505e+00 -1.758220e+00 4.931680e+00 200 220 247
2.866305e+01 9.041388e+00 -3.631011e+01 119 112 73
3.152819e+01 8.720840e+00 -3.431216e+01 192 204 132
2.840292e+01 9.225729e+00 -3.637421e+01 110 108 56
2.999011e+01 9.235430e+00 -3.583385e+01 198 201 110
2.143770e+01 1.077458e+01 -4.143428e+01 188 194 104
1.372974e+01 1.223161e+01 -4.653065e+01 221 210 130
3.192685e+01 9.304274e+00 -3.496611e+01 203 215 135
3.454046e+01 9.223990e+00 -3.410011e+01 131 120 78
2.905352e+01 1.047541e+01 -3.784148e+01 147 140 82
2.905352e+01 1.047541e+01 -3.784148e+01 147 140 82
2.592740e+01 1.116496e+01 -4.019878e+01 199 202 110
3.250327e+01 1.035835e+01 -3.633127e+01 206 211 117
3.661655e+01 9.875184e+00 -3.433717e+01 204 203 96
2.918471e+01 1.097753e+01 -3.840568e+01 147 131 55
2.918471e+01 1.097753e+01 -3.840568e+01 147 131 55
1.242522e+01 1.496561e+01 -5.102823e+01 229 218 124
-2.184348e+01 -3.651160e+00 -3.118378e+00 119 119 114
-6.871522e+00 -3.544287e+00 3.441231e+00 19 27 53
-1.508239e+01 -2.293824e+00 3.668795e-01 49 58 66
-7.776977e+00 -2.936475e+00 3.055773e+00 84 79 91
-2.255530e+01 -1.081727e+00 -2.996690e+00 255 254 253
-1.596246e+01 -8.889190e-01 3.532958e-01 27 39 54
-1.475840e+01 4.752371e-01 1.186243e+00 223 241 243
3.017233e+01 6.801751e+00 -3.177940e+01 210 215 217
3.129338e+01 6.855403e+00 -3.212170e+01 209 214 215
3.123723e+01 6.945448e+00 -3.182234e+01 145 132 108
2.669507e+01 8.371906e+00 -3.576840e+01 198 210 127
2.976864e+01 8.832034e+00 -3.575789e+01 128 123 60
-2.475728e+01 1.836327e+01 -7.083993e+01 233 216 167
2.892599e+01 9.133480e+00 -3.619677e+01 225 207 138
3.313255e+01 8.668245e+00 -3.408360e+01 134 131 78
2.797713e+01 9.720054e+00 -3.738606e+01 95 96 48
1.830787e+01 1.150532e+01 -4.398333e+01 215 213 100
3.549189e+01 9.791645e+00 -3.487718e+01 141 145 49
3.655331e+01 9.985632e+00 -3.465513e+01 205 207 95
3.431659e+01 1.059369e+01 -3.628349e+01 126 122 51
3.431659e+01 1.059369e+01 -3.628349e+01 126 122 51
3.519546e+01 1.054038e+01 -3.575111e+01 132 121 73
3.588907e+01 1.059107e+01 -3.566769e+01 110 109 48
2.737470e+01 1.188217e+01 -4.038251e+01 112 117 44
3.539909e+01 1.073146e+01 -3.588672e+01 179 176 106
2.455170e+01 1.263501e+01 -4.234320e+01 211 205 127
2.455170e+01 1.263501e+01 -4.234320e+01 211 205 127
2.716496e+01 1.228630e+01 -4.083411e+01 131 120 62
3.186706e+01 1.170511e+01 -3.861251e+01 134 120 74
1.931659e+01 1.417156e+01 -4.711805e+01 233 222 151
-2.166029e+01 2.676854e+01 -7.031696e+01 76 72 61
-2.242519e+01 -2.684213e+00 -3.374574e+00 189 190 199
-7.599284e+00 -3.918327e+00 2.952910e+00 153 147 145
-7.421760e+00 -3.377653e+00 3.080801e+00 92 95 94
-2.125137e+01 -1.767074e+00 -2.552423e+00 142 142 133
-2.160968e+01 -1.705641e+00 -2.693394e+00 50 55 82
-2.262460e+01 3.008131e-01 -2.461563e+00 160 179 177
-1.547838e+01 4.798660e-01 8.218142e-01 235 245 253
-1.542414e+01 5.066248e-01 8.453598e-01 69 78 95
-1.098561e+01 1.011405e+00 2.691278e+00 169 176 176
3.032841e+01 6.123100e+00 -3.144390e+01 183 190 182
-1.135438e+01 1.911570e+00 2.090412e+00 232 244 252
3.012457e+01 7.462666e+00 -3.296186e+01 240 220 171
3.012457e+01 7.462666e+00 -3.296186e+01 240 220 171
2.089981e+01 9.845574e+00 -4.058803e+01 179 189 112
-2.495792e+01 1.825317e+01 -7.074725e+01 236 224 174
2.480570e+01 1.064486e+01 -4.013105e+01 217 204 154
2.452301e+01 1.084563e+01 -4.026493e+01 203 218 121
2.848982e+01 1.022287e+01 -3.773552e+01 215 214 117
2.848982e+01 1.022287e+01 -3.773552e+01 215 214 117
2.847238e+01 1.031898e+01 -3.799156e+01 202 198 105
1.241611e+01 1.292623e+01 -4.789245e+01 234 217 137
2.546278e+01 1.107292e+01 -4.020996e+01 92 88 24
2.546278e+01 1.107292e+01 -4.020996e+01 92 88 24
-6.012372e+00 -2.980445e+00 3.907973e+00 170 184 191
2.781319e+01 2.122116e+01 -6.775680e+01 246 248 235
-2.144359e+01 1.619264e+01 -6.686455e+01 218 227 186
-1.555129e+01 -1.792855e+00 -6.867076e+00 159 169 168
-6.598447e+00 -2.924141e+00 4.148193e+00 235 239 244
-7.536453e+00 -3.066443e+00 3.064282e+00 157 165 171
-9.356219e+00 1.487125e+00 1.737431e+00 162 169 165
2.208753e+01 1.382776e+01 -4.549470e+01 188 186 116
1.876325e+01 1.549260e+01 -4.967938e+01 237 233 136
1.125922e+01 1.417664e+01 -5.041989e+01 239 238 118
8.969088e+00 1.628256e+01 -5.464257e+01 228 228 137
4.948080e+00 1.463534e+01 -5.311862e+01 230 237 130
9.318224e+00 1.410305e+01 -5.070257e+01 230 225 118
2.049898e+01 1.381249e+01 -4.616758e+01 171 174 82
2.049898e+01 1.381249e+01 -4.616758e+01 171 174 82
1.695775e+01 1.435360e+01 -4.826507e+01 232 228 148
9.886570e+00 1.549311e+01 -5.289666e+01 162 157 92
-2.381309e+00 -7.132656e-01 4.741295e+00 107 107 142
1.995104e+01 1.387831e+01 -4.651420e+01 144 139 78
1.175603e+01 1.514835e+01 -5.172406e+01 213 203 121
2.527416e+01 1.338155e+01 -4.339044e+01 174 154 85
1.473454e+01 1.481192e+01 -4.951914e+01 229 222 116
1.773226e+01 1.442940e+01 -4.779694e+01 205 208 107
1.099030e+01 1.761242e+01 -5.287868e+01 246 225 174
-5.174044e+00 -3.325488e+00 4.120089e+00 84 83 82
-9.012941e+00 1.438106e+00 1.517183e+00 43 47 50
6.014624e+00 1.404684e+01 -5.200344e+01 212 213 106
9.521907e+00 1.443262e+01 -5.075088e+01 141 126 72
2.382887e+01 1.315966e+01 -4.407118e+01 183 190 96
2.363955e+01 1.322565e+01 -4.414937e+01 140 144 68
9.620835e+00 1.496461e+01 -5.163203e+01 244 241 141
6.161434e+00 1.583712e+01 -5.484660e+01 243 233 161
2.281595e+01 1.367250e+01 -4.521852e+01 141 156 60
1.010584e+01 1.581463e+01 -5.319802e+01 222 225 148
9.653724e+00 1.708023e+01 -5.646704e+01 108 117 56
9.653724e+00 1.708023e+01 -5.646704e+01 108 117 56
1.092783e+01 1.647365e+01 -5.343956e+01 122 117 79
-6.290800e+00 -4.153830e+00 3.453578e+00 134 146 158
8.888007e+00 1.388424e+01 -5.058138e+01 223 223 121
9.058758e+00 1.399321e+01 -5.055516e+01 188 166 87
9.056897e+00 1.399400e+01 -5.055753e+01 188 166 87
8.982296e+00 1.509398e+01 -5.229998e+01 195 179 97
2.058212e+01 1.367601e+01 -4.578857e+01 232 219 144
1.197654e+01 1.537860e+01 -5.197331e+01 144 123 69
2.364815e+01 1.384354e+01 -4.507424e+01 223 212 149
2.446744e+01 1.402294e+01 -4.514730e+01 130 122 79
2.446744e+01 1.402294e+01 -4.514730e+01 130 122 79
2.317321e+01 1.451069e+01 -4.642619e+01 232 220 157
1.082378e+01 1.617845e+01 -5.339822e+01 243 228 178
-7.364317e+00 -2.673931e+00 3.493116e+00 180 190 202
3.694068e+01 1.129754e+01 -3.614597e+01 123 118 77
3.826013e+01 1.254910e+01 -3.753455e+01 197 191 95
2.240623e+01 1.350923e+01 -4.539186e+01 201 203 89
2.240623e+01 1.350923e+01 -4.539186e+01 201 203 89
3.749709e+01 1.106314e+01 -3.609979e+01 176 177 89
3.749709e+01 1.106314e+01 -3.609979e+01 176 177 89
3.335781e+01 1.204092e+01 -3.824726e+01 180 179 83
3.614570e+01 1.181689e+01 -3.682305e+01 137 139 87
3.315459e+01 1.231409e+01 -3.880993e+01 199 191 108
-2.640967e+01 3.296821e+01 -9.749222e+01 188 189 176
1.091901e+01 2.169482e+01 -5.239801e+01 245 237 216
1.082877e+01 2.255838e+01 -5.201149e+01 254 249 228
1.046487e+01 2.280424e+01 -5.227919e+01 94 95 84
1.081316e+01 2.355888e+01 -5.177037e+01 254 251 228
3.674404e+01 1.056577e+01 -3.550626e+01 128 123 67
3.772507e+01 1.071112e+01 -3.524253e+01 174 168 84
3.404636e+01 1.217005e+01 -3.845244e+01 142 136 89
3.638584e+01 1.252757e+01 -3.820257e+01 182 177 86
3.677891e+01 1.135544e+01 -3.630050e+01 115 103 54
3.521179e+01 1.237991e+01 -3.830955e+01 208 209 132
3.461608e+01 1.294394e+01 -3.953221e+01 214 210 123
3.706075e+01 1.277614e+01 -3.828536e+01 130 128 71
2.590268e+01 2.162378e+01 -6.952938e+01 249 247 238
4.115947e+00 1.387113e+01 -5.269969e+01 125 150 123
3.497186e+00 1.458582e+01 -5.382111e+01 152 172 147
3.454332e+01 1.140294e+01 -3.764367e+01 184 183 111
3.680949e+01 1.136501e+01 -3.633123e+01 114 102 53
3.704336e+01 1.163768e+01 -3.643863e+01 171 159 98
3.810295e+01 1.158328e+01 -3.598674e+01 129 118 62
3.259910e+01 1.253874e+01 -3.947592e+01 158 137 72
3.259910e+01 1.253874e+01 -3.947592e+01 158 137 72
2.540519e+01 1.407565e+01 -4.465422e+01 138 138 78
3.786050e+01 1.197488e+01 -3.654285e+01 173 176 103
3.461227e+01 1.251418e+01 -3.859236e+01 192 190 126
3.395096e+01 1.269346e+01 -3.922524e+01 104 96 52
3.395096e+01 1.269346e+01 -3.922524e+01 104 96 52
3.713280e+01 1.279094e+01 -3.836055e+01 127 125 66
1.106614e+01 1.845435e+01 -5.303977e+01 242 229 198
2.558802e+00 1.595956e+01 -5.657170e+01 183 204 165
1.091032e+01 1.462869e+01 -5.127639e+01 222 222 126
3.632864e+01 1.071039e+01 -3.567148e+01 210 209 108
3.426977e+01 1.180433e+01 -3.844993e+01 212 201 140
1.485191e+01 1.490287e+01 -4.989631e+01 231 221 117
3.328813e+01 1.212950e+01 -3.862980e+01 189 191 91
2.557685e+01 1.340785e+01 -4.318149e+01 92 83 41
2.557685e+01 1.340785e+01 -4.318149e+01 92 83 41
3.769746e+01 1.170733e+01 -3.627422e+01 124 119 74
1.860810e+01 1.511502e+01 -4.885013e+01 238 233 150
3.141298e+01 1.341652e+01 -4.114001e+01 155 143 64
1.432721e+01 1.178182e+01 -4.562087e+01 146 142 72
1.222148e+01 1.434111e+01 -4.992749e+01 110 119 46
1.355347e+01 1.459888e+01 -5.006880e+01 161 160 70
-4.398368e+00 -3.086140e+00 4.576143e+00 156 171 178
-4.398368e+00 -3.086140e+00 4.576143e+00 156 171 178
-3.815367e+00 -8.256613e-01 5.052612e+00 253 253 253
-6.251789e+00 -3.760969e+00 3.540324e+00 13 13 13
-5.204697e+00 -3.309331e+00 4.122893e+00 72 77 73
-6.998196e+00 -4.192946e+00 3.156797e+00 228 232 227
-6.273478e+00 -3.401932e+00 3.586181e+00 230 232 235
-3.096076e+00 -8.766551e-01 4.839097e+00 162 161 169
-3.096076e+00 -8.766551e-01 4.839097e+00 162 161 169
-6.571415e+00 -3.225850e+00 3.628889e+00 93 93 90
-1.814144e+00 -2.481629e+00 4.836777e+00 164 94 70
-6.903838e+00 -4.153540e+00 3.042171e+00 86 79 92
-6.306327e+00 -4.049896e+00 3.422143e+00 54 59 91
-5.931818e+00 -3.526607e+00 3.681114e+00 31 40 66
-6.323301e+00 -2.798950e+00 3.696181e+00 21 28 79
-2.411972e+00 -1.592154e+00 5.086264e+00 184 189 205
-7.231531e-01 -1.096294e+00 3.144247e+00 65 67 86
-7.610701e+00 2.167276e+00 -6.591836e-01 86 86 93
-6.332891e+00 -3.909474e+00 3.360209e+00 13 18 47
-2.475751e+00 -1.097795e+00 5.113642e+00 213 213 223
-7.051137e+00 1.649915e+00 8.730460e-01 85 90 110
-6.985967e+00 -4.184162e+00 3.042081e+00 235 238 233
-6.365191e+00 -4.105358e+00 3.401093e+00 243 248 249
-6.297056e+00 -3.977244e+00 3.328042e+00 232 233 233
-7.097002e+00 -3.002510e+00 3.487892e+00 3 2 16
-1.851696e+00 -2.896146e+00 4.557509e+00 180 190 189
-4.897715e+00 -1.917670e+00 4.785655e+00 111 121 152
-2.572223e+00 -7.340546e-01 4.994752e+00 61 70 112
-1.719431e+01 -3.954690e+00 3.367197e+01 0 255 0
-1.718830e+01 -3.957078e+00 3.362239e+01 255 255 0
-2.243759e+01 -3.622454e+00 3.239353e+01 255 0 0
-2.242454e+01 -3.624090e+00 3.234529e+01 255 255 0
-1.053686e+01 -4.404492e+00 3.570451e+01 0 255 0
-1.053790e+01 -4.406734e+00 3.565457e+01 255 255 0
-2.835533e+01 -3.217279e+00 2.973104e+01 255 0 0
-2.833531e+01 -3.219639e+00 2.968528e+01 255 255 0
-1.861356e+01 -8.050133e+00 5.206003e+01 0 255 0
-1.860149e+01 -8.043498e+00 5.201197e+01 255 255 0
