ply
format ascii 1.0
element vertex 920
property float x
property float y
property float z
property uchar diffuse_red
property uchar diffuse_green
property uchar diffuse_blue
end_header
-1.222959e+00 -2.326276e+00 3.303451e+00 223 172 171
-1.128628e+01 1.067556e-02 3.987324e+00 48 68 100
-2.205015e+02 -3.989150e+00 -3.159521e+01 255 238 216
-4.389005e+02 3.506823e+01 -1.990589e+02 24 32 36
-3.421472e+02 2.545701e+01 -1.237843e+02 253 255 250
4.261598e-01 -2.167004e-02 -1.465329e+01 230 232 223
-1.433940e+02 -6.089623e+00 2.849939e+01 68 67 47
-4.057953e+02 2.175957e+01 -1.289251e+02 33 34 19
-5.768739e+02 1.138485e+01 -6.463560e+00 141 124 141
-5.591230e+02 1.515650e+01 -4.275418e+00 248 253 255
4.526861e+00 -1.486784e+00 2.319214e+00 252 254 254
-1.624648e+02 -8.080970e+00 1.776262e+01 96 93 54
-1.970575e+02 3.564895e+01 -1.651121e+02 217 205 153
-1.981034e+02 3.739121e+00 -3.747687e+00 234 229 198
-2.226129e+01 1.247376e+00 -1.102224e+00 117 140 147
-2.337568e+02 -3.653377e+00 -2.646453e+01 46 37 30
-2.179955e+01 1.447501e+00 -8.431050e-01 60 82 105
-8.943816e-01 -2.313640e+00 2.521494e+00 205 197 189
-1.073468e+00 -2.241122e+00 2.967044e+00 205 190 184
-1.157196e+00 -2.292023e+00 3.151111e+00 201 179 167
-1.689832e+00 -1.186732e+00 2.953678e+00 30 36 36
-1.248526e+00 -2.344240e+00 3.336574e+00 154 89 81
-1.053900e+00 -2.183386e+00 2.933235e+00 196 169 158
-9.716914e-01 -1.990098e+00 2.868962e+00 223 221 219
-1.103317e+00 -2.080594e+00 3.204379e+00 210 203 194
-1.267449e+01 3.240306e+00 -1.146521e+00 94 118 120
-1.036981e+00 -2.348488e+00 2.809992e+00 208 206 196
-1.210184e+00 -2.360892e+00 3.256428e+00 128 77 67
-1.046021e+00 -2.258647e+00 2.889944e+00 131 80 77
-1.113399e+00 -2.079200e+00 3.205955e+00 216 212 205
-1.705861e+00 -1.103339e+00 3.015324e+00 167 166 159
-8.840253e+00 1.555096e+00 -3.675325e-01 65 78 87
-3.474225e+02 2.025335e+01 -1.290958e+02 255 255 255
-7.597801e+01 -1.669578e+01 3.641363e+01 190 187 170
-1.273682e+02 -1.720673e+01 3.802446e+01 47 48 42
-1.273682e+02 -1.720673e+01 3.802446e+01 47 48 42
-3.605986e+02 1.623899e+01 -1.331184e+02 71 69 68
-1.335415e+02 -1.178395e+01 1.872740e+01 156 174 116
-2.007854e+02 -1.392820e+01 7.580431e+01 47 62 54
-1.072597e+02 -1.944410e+01 4.682428e+01 76 75 60
-1.246583e+02 -1.700024e+01 3.921569e+01 52 53 36
-1.250312e+02 -1.605358e+01 3.962621e+01 35 39 23
-3.413606e+02 1.656638e+01 -1.162924e+02 254 255 247
-1.622373e+02 -5.762786e+00 1.791505e+01 235 229 199
-2.337425e+02 6.660201e+00 -2.399273e+01 211 207 163
-1.437687e+02 -3.322679e+00 2.912565e+01 58 60 53
-1.434400e+02 -2.195644e+00 2.894548e+01 54 56 51
-1.342187e+02 -1.484680e+01 2.527054e+01 210 207 152
-1.247574e+02 -1.565638e+01 3.967004e+01 39 42 31
-3.253436e+02 1.810241e+01 -1.186168e+02 209 211 212
-2.343687e+02 8.843918e+00 -2.550697e+01 136 134 110
-7.914968e-01 -2.640601e+00 2.194645e+00 144 144 152
-8.678429e+01 -1.599933e+01 3.546377e+01 41 54 37
-1.243250e+02 -1.645191e+01 3.867371e+01 56 54 44
-1.247119e+02 -1.569969e+01 3.913639e+01 134 127 99
-1.064940e+02 -1.622062e+01 5.002523e+01 79 77 50
-3.488422e+02 1.341883e+01 -1.226967e+02 90 96 97
-1.247802e+02 -1.231240e+01 3.998272e+01 213 211 171
-1.994162e+02 -2.447463e+00 -4.207948e+00 104 98 75
-1.246601e+02 -8.797275e+00 4.020938e+01 87 94 68
-1.244841e+02 -5.025329e+00 4.184196e+01 218 218 189
-3.377584e+02 2.567090e+01 -8.630037e+01 213 208 167
-2.165565e+02 8.188384e+00 -1.345837e+01 216 213 175
-1.243316e+02 -4.389854e+00 4.195314e+01 226 222 194
-1.262361e+02 -2.193868e+00 4.213901e+01 66 73 47
-1.239955e+02 -1.814340e+01 3.940304e+01 144 147 100
-1.325127e+02 -1.262964e+01 1.745502e+01 255 254 254
-1.244898e+02 -1.669135e+01 3.836592e+01 98 93 74
-1.244898e+02 -1.669135e+01 3.836592e+01 98 93 74
-1.322390e+02 -1.104392e+01 1.729518e+01 254 255 252
-1.063036e+02 -1.505423e+01 4.985768e+01 169 176 131
-1.254495e+02 -1.216236e+01 4.046736e+01 98 98 61
-1.261967e+02 -1.238112e+01 4.116532e+01 104 105 97
-3.201743e+02 9.624701e+00 -7.768719e+01 109 102 80
-1.436102e+02 -6.960937e+00 2.848313e+01 83 84 54
-2.332567e+02 7.029511e+00 -2.568475e+01 239 235 190
-1.246921e+02 -5.233267e+00 4.218312e+01 121 119 96
-1.245270e+02 -4.519436e+00 4.163956e+01 103 101 80
-1.250295e+02 -1.838817e+00 4.258918e+01 104 101 80
-2.700272e+02 2.129917e+01 -4.281848e+01 117 115 119
-7.385153e-01 -1.643075e+00 2.234169e+00 249 246 248
-9.264071e+01 -1.544697e+01 3.140661e+01 91 98 99
-1.358423e+02 2.640259e+00 -4.485552e+01 149 150 157
-1.235718e+02 -1.321741e+01 3.900797e+01 47 53 27
-3.371371e+02 1.961312e+01 -1.235612e+02 221 221 221
-1.434659e+02 -7.087792e+00 2.808019e+01 174 171 143
-2.875051e+02 1.178909e+01 -5.575321e+01 172 167 141
-1.239552e+02 -6.538089e+00 4.129601e+01 76 73 59
-1.256754e+02 -2.388314e+00 4.184931e+01 47 51 25
-1.672891e+01 -3.007827e-01 -9.754538e+00 23 24 21
-2.703186e+02 -1.172593e+00 -4.969275e+01 45 46 36
-7.277153e-01 -1.920949e+00 2.362180e+00 199 195 184
-3.693623e+00 -2.052220e+00 -8.302841e+00 180 173 155
-4.175429e+00 -2.232557e+00 -7.976863e+00 178 171 157
-2.567521e+00 -2.003766e+00 4.587660e+00 255 255 255
-1.877013e+01 -1.150502e+00 -1.061562e+01 131 130 120
-8.644846e+00 2.511345e+00 -4.378972e+00 86 91 100
-1.808812e+02 7.067157e-02 7.992655e+00 73 63 51
-1.532482e+00 -1.632326e-01 -2.077973e+00 183 183 167
-1.866402e+01 -7.594314e-01 -1.054624e+01 43 41 36
-1.845326e+01 -3.945040e-01 -1.031460e+01 30 30 25
-1.863152e+01 4.087560e-02 -1.023956e+01 47 47 43
-1.923961e+01 6.708038e-01 -1.032893e+01 21 21 17
-2.342369e+02 3.774760e+00 -2.572161e+01 189 172 137
-2.337255e+02 1.693312e+00 -2.582190e+01 64 60 27
-2.341320e+02 4.630020e+00 -2.579443e+01 63 55 35
-6.643038e+00 -2.639960e-01 -5.571093e+00 78 86 86
1.373716e+01 -1.472148e+00 -7.939265e+00 255 255 255
-6.951669e+00 -3.286482e-01 -5.509877e+00 74 84 83
-1.756624e+01 1.350837e+00 5.208999e-01 134 163 169
-1.526421e+00 -3.048769e+00 3.906317e+00 21 25 24
-1.794806e+00 -1.269222e+00 3.392320e+00 200 208 195
-1.794806e+00 -1.269222e+00 3.392320e+00 200 208 195
-1.314467e+00 -2.730987e-01 2.304074e-01 244 244 244
-9.368167e+01 -1.521381e+01 3.082113e+01 63 68 69
-3.586742e+00 -3.212421e+00 5.931171e+00 188 119 55
-1.536614e+00 4.351342e-01 -1.335025e+00 98 105 120
-7.642922e+01 -1.787225e+01 4.549056e+01 134 142 91
1.623899e+01 1.000271e-02 -1.107330e+01 148 148 149
5.444889e-01 1.563100e-02 -1.509038e+01 228 229 224
-1.288594e+00 2.210304e-01 -1.209046e+00 203 186 171
-2.318273e+00 -1.606777e+00 -3.252735e+00 81 85 84
-3.717771e+01 -1.378197e+01 3.059015e+01 87 87 90
-3.683345e+01 -1.368580e+01 3.042686e+01 87 87 90
-4.004662e+01 -1.169209e+01 2.262285e+01 114 117 110
-7.317490e+01 -1.820678e+01 4.300909e+01 123 126 107
-3.306242e+02 2.748781e+01 -1.423610e+02 253 252 250
-2.357694e+02 1.868700e+01 -2.228101e+01 171 160 151
1.456863e+01 -8.612829e-01 -9.424893e+00 121 110 75
-5.331500e-01 -4.891011e-01 -1.336107e+01 220 221 221
-3.977150e+00 -1.433069e+00 -4.029491e+00 156 173 188
-3.033978e-01 -1.400674e+00 3.193648e-01 124 93 88
-3.097797e+00 -1.765611e-01 -3.343325e+00 22 25 29
-7.187006e+01 -1.807669e+01 4.297342e+01 140 142 128
-9.823440e+01 -1.531909e+01 2.829456e+01 102 108 95
-9.137967e+00 3.004162e+00 -4.648990e+00 117 126 139
-2.411411e+00 -1.118537e+00 -3.365464e+00 17 21 30
-1.227186e+00 -2.180544e+00 3.371016e+00 248 247 246
-5.368803e+00 -8.015507e-01 -4.485201e+00 101 103 100
-1.325322e+00 -5.369014e-01 3.251029e-01 254 254 254
-6.636137e+01 -1.870237e+01 4.582556e+01 119 123 102
-6.803354e+01 -1.825769e+01 4.422512e+01 124 125 107
-7.264573e+01 -1.769045e+01 4.488826e+01 187 188 122
-8.266558e+01 -1.690919e+01 3.737950e+01 24 26 22
-9.582966e+01 -1.443619e+01 2.620027e+01 130 135 114
-1.162105e+02 -1.449087e+01 2.920881e+01 68 61 51
1.458654e+01 -8.294558e-01 -9.517066e+00 207 203 174
1.439926e+01 -8.886722e-01 -9.279726e+00 138 138 136
-2.258994e+00 -1.140757e+00 -1.132502e+01 107 107 106
-1.121319e+00 -2.095355e+00 3.168141e+00 255 253 254
-3.666706e+00 -9.776023e-01 -3.784650e+00 124 124 121
-1.787897e+01 3.442383e-01 -1.906227e+01 162 169 137
-1.184723e+00 4.259169e-01 -1.207498e+00 144 128 138
-4.167406e+01 -1.125068e+01 2.045939e+01 246 248 236
-4.167406e+01 -1.125068e+01 2.045939e+01 246 248 236
-4.927505e+01 -1.455490e+01 3.288468e+01 125 129 115
-6.051442e+01 -1.559984e+01 3.550800e+01 64 76 80
-6.779793e+01 -1.348103e+01 2.620656e+01 71 81 90
-7.317567e+01 -1.762809e+01 4.463760e+01 141 149 92
-7.645592e+01 -1.716108e+01 4.253467e+01 99 112 75
-9.759983e+01 -1.459330e+01 2.719518e+01 44 45 41
-1.037285e+02 -1.916003e+01 4.556927e+01 198 192 144
-1.143988e+02 -1.431688e+00 -2.848566e+01 202 204 194
-2.175201e+02 6.308183e+00 -1.528239e+01 164 163 142
-2.171542e+02 6.822965e+00 -1.464025e+01 39 41 38
-1.057465e+02 -2.107177e+00 5.117875e+01 45 46 44
1.438206e+01 -9.916313e-01 -9.130423e+00 165 161 161
1.438465e+01 -9.293291e-01 -9.151755e+00 138 138 134
1.308329e+01 -1.925385e+00 -6.007388e+00 113 104 120
1.298905e+01 -1.747483e+00 -6.644101e+00 254 254 244
2.095100e+00 4.884147e-01 -1.659887e+01 120 109 108
1.990819e+00 4.617302e-01 -1.652772e+01 104 97 105
-2.753463e+00 -3.391946e+00 5.003991e+00 99 109 115
-1.699279e+01 7.266433e-01 -2.024971e+01 224 221 215
-4.836343e+00 -4.696308e-01 -4.136431e+00 144 143 139
-1.729274e+00 -1.075929e+00 3.054959e+00 254 252 254
-4.552617e+01 -1.300073e+01 2.644513e+01 249 251 244
-4.693980e+01 -1.366403e+01 2.897610e+01 245 246 233
-6.738002e+01 -1.877374e+01 4.648608e+01 37 34 26
-6.936353e+01 -1.341463e+01 2.548250e+01 74 82 89
-6.936353e+01 -1.341463e+01 2.548250e+01 74 82 89
-7.376604e+01 -1.751388e+01 4.136151e+01 51 45 45
-6.755089e+01 -1.227163e+01 2.167496e+01 125 125 120
-7.665382e+01 -1.722543e+01 3.975863e+01 28 29 24
-7.538749e+01 -1.719149e+01 4.324072e+01 109 116 82
-8.004330e+01 -1.688425e+01 4.098919e+01 76 86 49
-8.643293e+01 -1.550650e+01 3.191249e+01 109 122 107
-9.215377e+01 -1.557264e+01 3.060068e+01 110 119 98
-1.696598e+01 6.101716e-01 1.496862e+00 182 218 231
-1.029504e+02 -1.365970e+01 2.628296e+01 88 76 73
-1.526948e+01 4.969670e+00 -3.927093e+00 212 215 217
-6.376455e+02 -1.998568e+01 -2.063976e+01 149 127 131
1.494358e+01 -6.880356e-01 -9.983214e+00 246 238 181
6.212677e-01 -9.914721e-02 -1.465540e+01 232 230 227
-1.567346e+00 -1.090558e+00 -1.146965e+01 234 236 235
-5.664423e+00 -2.587761e+00 -6.573713e+00 64 79 69
-1.307878e+01 -8.872704e+00 1.523740e+01 114 117 121
-1.314726e+01 -8.862003e+00 1.546590e+01 217 201 173
-9.753678e-01 -2.330884e+00 2.760101e+00 125 130 149
-2.895774e-01 -1.367475e+00 3.283600e-01 74 64 64
-3.393498e+01 1.272979e+00 -2.501835e+01 209 213 203
-3.380006e+01 1.287880e+00 -2.497399e+01 209 213 203
-5.127269e+01 -1.557199e+01 3.600065e+01 204 208 195
-5.127269e+01 -1.557199e+01 3.600065e+01 204 208 195
-6.767055e+01 -1.821701e+01 4.480819e+01 43 42 37
-6.809117e+01 -1.208872e+01 2.104366e+01 143 146 128
-6.809117e+01 -1.208872e+01 2.104366e+01 143 146 128
-7.733976e+01 -1.763103e+01 4.070379e+01 34 34 29
-6.866407e+01 -1.169682e+01 1.973741e+01 122 127 125
-9.155888e+01 -1.602920e+01 3.223575e+01 120 128 108
-4.741562e+02 3.581452e+01 -1.662292e+02 182 177 151
-2.166777e+02 5.492326e+00 -1.414787e+01 199 193 162
-2.610760e+02 4.087119e+01 -1.989545e+02 245 226 170
-3.121957e+02 2.361503e+01 -1.317310e+02 241 241 239
-3.404229e+02 1.872370e+01 -1.221851e+02 255 255 254
-3.191625e+02 4.590547e+01 -2.115762e+02 254 254 253
-4.162477e+02 1.869830e+01 -1.572174e+02 139 132 122
-1.368246e+01 2.295857e+00 2.276725e+00 143 173 185
-3.403967e+02 1.601432e+01 -1.205981e+02 50 50 55
-3.412555e+02 2.741394e+01 -1.298910e+02 255 255 253
-4.034162e+02 2.164986e+01 -1.281130e+02 36 40 23
-1.176058e+00 -2.758925e+00 3.089709e+00 232 243 237
-8.643007e-01 -2.263804e+00 2.514446e+00 125 127 159
-4.350156e+02 2.903832e+01 -1.452189e+02 216 213 175
-7.858101e-01 -2.632769e+00 2.245031e+00 127 128 146
-1.365746e+00 -2.779058e+00 3.521385e+00 251 249 245
-3.343110e+02 6.267418e+00 -8.794898e+01 86 73 51
-4.031918e+02 2.164976e+01 -1.271784e+02 186 176 131
-2.189416e+02 -7.015799e+00 -1.590686e+01 177 164 134
-1.293831e+02 2.702740e+01 -1.212974e+02 237 235 215
-2.168906e+02 4.103582e-01 -1.460066e+01 215 206 150
-3.127531e+02 4.434751e+01 -2.216720e+02 249 247 247
-1.755580e+02 -6.353983e+00 -1.761335e+01 59 61 54
-1.470587e+02 2.526013e+01 -1.300728e+02 239 226 194
-5.808145e+01 -1.035525e+01 1.541524e+01 136 134 121
-1.982724e+02 -8.633990e+00 -6.236414e+00 178 173 147
-1.414554e+02 2.476885e+01 -1.271453e+02 183 176 141
-2.165372e+02 -2.682614e-01 -1.432685e+01 230 221 171
-1.653854e+02 2.874428e+01 -1.426235e+02 173 181 101
-3.131294e+02 4.295994e+01 -2.233182e+02 128 118 121
-2.166454e+02 2.819524e+00 -1.349907e+01 233 229 195
-2.165309e+02 3.321305e+00 -1.327807e+01 227 222 182
-2.165309e+02 3.321305e+00 -1.327807e+01 227 222 182
-2.690540e+02 1.038175e+01 -4.732109e+01 198 190 145
-1.805925e+02 1.586655e+00 7.291291e+00 60 56 37
-1.995616e+02 -9.505022e+00 -5.016220e+00 198 184 153
-1.984196e+02 -7.275710e+00 -5.268433e+00 54 44 21
-3.044790e+02 2.234171e+00 -7.018396e+01 58 50 27
-2.337382e+02 1.175643e-01 -2.646658e+01 40 35 12
-1.805823e+02 -2.202393e+00 6.846968e+00 182 178 133
-1.988239e+02 -3.592811e-01 -3.661301e+00 84 81 39
-2.514515e+02 8.066427e+00 -3.530413e+01 238 227 180
-1.986632e+02 3.119225e+00 -3.349778e+00 73 66 30
-1.986632e+02 3.119225e+00 -3.349778e+00 73 66 30
-5.916291e+01 1.907852e+01 -6.281290e+01 254 232 183
-5.916291e+01 1.907852e+01 -6.281290e+01 254 232 183
-8.049563e-01 -2.721228e+00 2.251996e+00 139 142 148
-3.465479e+02 2.490401e+01 -1.403412e+02 250 249 229
-1.051247e+02 2.357922e+01 -1.081840e+02 247 231 206
-3.290032e+02 2.225802e+01 -1.322382e+02 254 254 237
-3.300269e+02 2.532178e+01 -1.385461e+02 200 193 171
-3.319237e+02 2.592948e+01 -1.381085e+02 239 225 197
-3.346390e+02 3.063855e+01 -1.409809e+02 212 204 171
-1.251587e+00 -2.320934e+00 3.369773e+00 213 190 155
-5.998871e+01 1.476239e+01 -6.499066e+01 227 199 141
-1.070429e+02 2.397132e+01 -1.092619e+02 178 162 140
-1.045987e+02 2.459747e+01 -1.074661e+02 216 199 169
-1.104585e+00 -2.477216e+00 2.926790e+00 170 171 164
-2.447913e+00 -1.870419e+00 4.030075e+00 177 177 174
-8.302984e+00 1.583794e+00 -1.221657e+00 35 41 52
-1.319986e+00 -2.434989e+00 3.490414e+00 148 59 31
-1.267876e+00 -2.401199e+00 3.376037e+00 143 70 55
-1.240101e+00 -2.381734e+00 3.323614e+00 138 69 59
-1.226440e+00 -2.373832e+00 3.288680e+00 136 70 55
-1.226440e+00 -2.373832e+00 3.288680e+00 136 70 55
-1.133704e+00 -2.259130e+00 3.160872e+00 217 199 158
-1.042569e+02 2.146141e+01 -1.082855e+02 232 223 163
-4.441556e+02 3.436543e+01 -2.035138e+02 104 101 84
-1.013457e+00 -2.300685e+00 2.856627e+00 213 202 183
-1.275544e+00 -2.445419e+00 3.387833e+00 227 216 197
-3.178846e+02 4.175998e+01 -2.098963e+02 238 240 229
-6.015562e+01 1.449948e+01 -6.499111e+01 219 180 130
-1.050891e+00 -2.843569e+00 2.851835e+00 226 221 209
-9.544792e-01 -2.683413e+00 2.587296e+00 178 193 186
-1.366443e+00 -2.677670e+00 3.547503e+00 253 245 228
-1.003920e+00 -2.170388e+00 2.907147e+00 221 185 162
-7.792053e-01 -2.404562e+00 2.260974e+00 203 199 191
-1.832189e+02 -1.034571e+01 4.531025e+00 47 50 40
-7.251946e+00 2.125594e+00 -3.480887e+00 149 192 233
-1.725364e+02 -6.527610e+00 -1.586232e+01 63 65 63
-1.086069e+01 -1.142747e-01 4.090272e+00 180 201 218
-1.438559e+02 -1.248880e+01 2.717922e+01 119 114 83
-1.798145e+02 -1.460137e+00 6.458713e+00 178 174 132
-1.432098e+02 -3.190641e+00 2.988362e+01 78 77 51
-8.390266e+00 2.421513e+00 -4.513206e+00 66 75 85
-1.984227e+02 -7.266372e+00 -5.261337e+00 66 60 39
-1.435611e+02 -8.666665e+00 2.852220e+01 62 57 38
-2.335846e+02 -1.693767e+00 -2.633847e+01 242 235 202
-1.435117e+02 -7.878028e+00 2.824124e+01 221 213 178
-1.439531e+02 -5.572277e+00 2.952342e+01 231 220 191
-2.696297e+02 7.286779e+00 -4.792968e+01 216 208 164
-1.441616e+02 -2.111295e+00 2.945023e+01 184 193 146
-1.806781e+02 6.119845e+00 7.860024e+00 57 56 23
-1.442827e+02 2.457578e+00 3.079435e+01 207 210 165
-9.047931e+01 -5.235269e+00 -7.950121e+00 42 40 22
-2.201099e+02 -3.961688e+00 -3.148464e+01 254 202 173
-2.070498e+02 -3.024385e+00 -3.453734e+01 58 73 40
-2.245269e+02 -9.952547e-01 -4.704278e+01 57 58 56
-2.689432e+02 1.944298e-01 -4.827446e+01 82 73 58
-1.278064e+00 -2.853585e+00 3.246417e+00 165 177 183
-9.184248e+01 -4.704928e+00 -6.485575e+00 73 65 42
-1.837344e+02 -5.351178e+00 -1.986694e+01 103 107 60
-2.383432e+02 -7.769152e-02 -5.405812e+01 58 63 43
-2.325077e+02 -5.753890e+00 -2.658160e+01 175 151 120
-2.334934e+02 -4.345749e+00 -2.725578e+01 189 168 138
-2.339282e+02 -4.710854e+00 -2.616443e+01 75 71 39
-1.147534e+00 -2.722814e+00 3.037862e+00 63 78 94
-7.240503e-01 -2.006154e+00 2.262304e+00 210 202 194
-9.098927e+01 -4.985979e+00 -5.272399e+00 74 72 34
-8.949169e-01 -1.952526e+00 2.714305e+00 221 220 215
-1.177606e+01 4.165933e-01 2.696771e+00 35 39 39
-8.104561e-01 -2.694287e+00 2.327208e+00 218 217 211
-8.104561e-01 -2.694287e+00 2.327208e+00 218 217 211
-1.153941e+00 -2.895337e+00 3.064776e+00 223 221 211
-1.212807e+00 -2.932682e+00 3.186093e+00 227 227 222
-7.928627e-01 -2.536648e+00 2.223447e+00 207 204 201
-9.759892e-01 -2.502487e+00 2.622670e+00 174 173 174
-1.194794e+00 -2.730557e+00 3.085569e+00 171 186 190
-1.194013e+00 -2.392622e+00 3.220587e+00 212 200 187
-1.194114e+00 -2.392597e+00 3.220387e+00 212 200 187
-1.199904e+00 -2.834878e+00 3.153271e+00 165 177 180
-1.048309e+00 -2.458348e+00 2.800897e+00 188 182 169
-9.586148e-01 -2.841207e+00 2.564714e+00 212 210 197
-1.328545e+00 -2.915516e+00 3.436508e+00 177 190 188
-8.301989e-01 -2.706942e+00 2.319410e+00 217 216 208
-8.444852e-01 -2.703910e+00 2.373633e+00 39 39 43
-1.057668e+00 -2.193400e+00 2.896016e+00 135 69 66
-1.199041e+00 -2.930238e+00 3.196016e+00 230 230 225
-1.187773e+00 -2.299040e+00 3.233863e+00 236 193 179
-1.187773e+00 -2.299040e+00 3.233863e+00 236 193 179
-1.704354e+00 -1.301922e+00 2.944447e+00 27 29 28
-1.282442e+01 4.663431e-01 3.557761e+00 107 122 143
-1.161428e+02 -1.707302e+01 3.473267e+01 205 204 140
-1.619251e+02 -1.362556e+01 1.670608e+01 166 160 134
-5.625831e+02 -1.055669e+01 -5.802259e+00 150 156 136
-1.615886e+00 -1.166965e+00 3.676272e+00 43 44 66
-1.982570e+02 -6.384969e+00 -5.243328e+00 113 111 92
-1.661794e+01 8.853287e-01 -2.068566e+01 216 218 209
-1.439216e+02 -1.516524e+01 2.552207e+01 150 155 104
-1.435778e+02 -9.355824e+00 2.809459e+01 215 212 174
-5.713698e+02 -9.997034e-01 -1.661807e+00 166 169 143
-5.710332e+01 -1.016869e+01 1.438977e+01 254 253 241
-1.061236e+02 -1.703050e+01 4.942959e+01 119 125 82
-1.439391e+02 -1.047406e+01 2.842131e+01 111 107 77
-3.468954e+02 1.635052e+01 -1.230895e+02 32 32 39
-1.618804e+02 -5.040283e+00 1.787986e+01 73 68 50
-1.985636e+02 -1.030997e+00 -4.292883e+00 91 88 60
-2.337579e+02 9.076214e+00 -2.324774e+01 80 69 50
-1.440004e+02 -1.766665e+00 2.928454e+01 41 43 25
-1.340558e+02 -1.248252e+01 1.668204e+01 192 187 172
-3.056583e+02 7.378043e+00 -9.304299e+01 199 209 137
-3.753407e+02 1.043219e+01 -1.120881e+02 70 66 51
-2.346895e+02 7.854786e-01 -2.573332e+01 236 231 210
-1.438927e+02 -7.846939e+00 2.909321e+01 97 94 58
-1.438011e+02 -3.610826e+00 2.856166e+01 221 215 186
-1.438011e+02 -3.610826e+00 2.856166e+01 221 215 186
-1.433687e+02 -3.520694e+00 2.970667e+01 84 76 63
-3.694830e+02 3.564295e+01 -1.039489e+02 198 198 176
-1.637888e+02 -1.285831e+01 1.573470e+01 51 47 35
-3.109826e+02 5.497288e-01 -7.067006e+01 199 192 133
-2.881592e+02 7.354300e-01 -6.000220e+01 35 37 29
-2.708600e+02 -1.157931e+00 -4.976895e+01 45 46 36
-2.729362e+00 -2.459224e-01 -3.200416e+00 150 147 124
-1.229097e+00 -2.434152e+00 3.276670e+00 208 198 174
-1.627425e+02 -1.303851e+01 1.481401e+01 55 54 49
-2.345969e+02 -1.705117e+00 -2.688447e+01 38 38 27
-2.192858e+02 -1.992315e+00 -4.296634e+01 54 57 40
-2.879262e+02 6.954702e+00 -5.727075e+01 155 143 96
-2.536514e+02 7.882771e+00 -3.461677e+01 222 207 147
-2.160183e+02 4.436205e+00 -1.315804e+01 55 50 32
-1.986371e+02 -1.869593e-01 -3.975279e+00 181 162 111
-1.809635e+02 -3.471123e-01 8.218534e+00 189 173 115
-1.352539e+02 -1.053093e+01 7.863825e+00 151 145 86
-1.810810e+02 -7.011661e+00 5.924819e+00 51 50 32
-1.805650e+02 -5.164653e+00 6.162081e+00 63 57 31
-2.164463e+02 1.422036e+00 -1.385612e+01 211 187 125
-1.678843e+00 -1.091245e+00 2.875942e+00 76 72 60
-1.690067e+00 -1.093109e+00 2.877372e+00 76 72 60
-1.068270e+02 -1.929667e+01 4.827871e+01 54 50 48
-1.062452e+02 -1.982031e+01 4.992485e+01 67 62 47
-1.071116e+02 -1.709671e+01 5.008998e+01 176 173 126
-1.150105e+02 -2.157831e+01 5.756300e+01 195 198 185
-1.078324e+02 -1.812490e+01 4.796343e+01 186 187 178
-4.153504e-01 -5.514810e-01 -1.273591e+01 233 236 238
-1.056566e+02 -1.983447e+01 4.688486e+01 175 171 119
-1.064019e+02 -1.947986e+01 5.008968e+01 51 52 44
-1.064029e+02 -1.909208e+01 4.935599e+01 114 109 79
-1.063287e+02 -1.906986e+01 4.931732e+01 114 109 79
-1.068930e+02 -7.111876e+00 5.179183e+01 187 184 143
9.130584e+00 -3.641039e+00 -3.051502e-01 114 119 83
-1.066756e+02 -7.235978e+00 5.097883e+01 143 144 119
-1.070737e+02 -2.050796e+01 5.039996e+01 54 56 44
-1.149009e+02 -2.037844e+01 5.620650e+01 77 94 100
-2.352575e+02 3.476386e+00 -2.657206e+01 37 33 34
-1.265559e+02 -5.476069e+00 4.058429e+01 32 33 30
1.725420e+01 -2.405263e+00 -3.465812e+00 53 35 26
-6.599741e+01 -1.747537e+01 4.016380e+01 110 113 107
-1.035751e+02 -2.012464e+01 4.874947e+01 191 188 143
-1.064353e+02 -1.975922e+01 5.037836e+01 43 46 26
-2.676689e+02 -1.382720e+00 -4.899501e+01 64 56 53
-3.010712e+02 1.706240e+00 -6.741258e+01 185 194 152
-3.363666e+02 6.324158e+00 -9.074549e+01 75 72 70
-2.697670e+02 1.135572e+00 -4.828669e+01 58 58 52
-1.262607e+02 -2.548739e+00 4.238782e+01 208 208 174
-2.699820e+02 1.961015e+01 -4.326292e+01 119 118 118
4.965904e-01 1.824831e-02 -1.488281e+01 232 231 226
-1.521445e+00 -2.678423e+00 3.891984e+00 25 33 44
-1.657920e+01 9.907833e-01 -2.114124e+01 190 191 182
-1.268426e+02 -1.651614e+01 4.078284e+01 79 88 94
-1.257734e+02 -1.599444e+01 4.040308e+01 172 174 157
-2.892926e+02 5.675910e+00 -8.560630e+01 81 83 81
-2.892926e+02 5.675910e+00 -8.560630e+01 81 83 81
-7.359448e+01 -1.760897e+01 4.112089e+01 178 180 168
-3.364470e+02 1.907629e+01 -1.387662e+02 251 254 253
-2.518974e+02 -8.716710e-01 -3.761565e+01 212 203 161
-1.436430e+02 -6.221135e+00 2.927978e+01 225 221 190
-2.690710e+02 8.964319e+00 -4.756574e+01 221 222 174
-1.257266e+02 -4.475332e+00 4.170671e+01 223 221 197
-4.810572e+00 3.049353e-01 -4.020119e+00 35 39 40
-4.392002e+00 -1.231862e+00 -4.283214e+00 113 115 121
-1.575583e+00 -3.030371e+00 3.929209e+00 19 19 21
-7.716654e-01 -2.544389e+00 2.226848e+00 234 246 249
-3.056697e+00 -1.727686e+00 4.533097e+00 158 173 178
-3.056697e+00 -1.727686e+00 4.533097e+00 158 173 178
-1.027192e+00 1.440427e-01 -7.855288e-01 243 245 245
-1.768307e+01 1.684525e-01 -9.885713e+00 25 31 28
3.570613e+00 1.458291e+00 -1.975224e+01 254 254 253
2.362460e+00 9.279659e-01 -1.830880e+01 248 248 244
-3.467559e-01 -1.538188e+00 -6.956298e-02 232 157 58
-4.177892e+00 -1.059520e+00 -4.019663e+00 123 140 162
-9.182088e+00 2.331256e+00 -4.726366e+00 59 56 64
9.482653e+00 -3.680496e+00 -2.740334e-01 222 221 224
1.033660e+01 -8.209600e-02 -1.276150e+01 43 43 45
1.033992e+01 -8.114780e-02 -1.275993e+01 43 43 45
9.102508e+00 -3.558814e+00 -7.209662e-01 112 120 107
-4.115818e+00 -1.974808e+00 -4.194644e+00 183 196 209
-4.115818e+00 -1.974808e+00 -4.194644e+00 183 196 209
-7.088004e+00 -8.658035e-01 -5.421944e+00 78 87 86
-1.701544e+01 -6.604077e-02 -9.568504e+00 82 91 95
-7.504244e+01 -1.581093e+01 3.469306e+01 99 99 99
-9.317345e+00 2.401783e+00 -5.019093e+00 117 159 194
-9.152528e+00 1.113510e+00 8.920132e-01 33 44 61
-8.973922e+01 -1.525635e+01 3.379979e+01 193 189 129
-3.386993e+02 2.235011e+01 -1.389217e+02 73 73 90
1.671033e+01 -2.301300e+00 -3.991575e+00 42 43 37
1.665049e+01 -2.263553e+00 -4.076343e+00 44 45 51
1.137334e+01 -2.790064e+00 -3.185134e+00 242 242 242
2.096947e+00 9.395143e-01 -1.790162e+01 146 151 151
-5.392145e-01 -5.161316e-01 -1.315763e+01 236 238 237
-5.028604e+00 -1.408332e+00 -4.574341e+00 108 113 117
-4.795792e+00 -6.699744e-01 -4.161810e+00 134 142 148
-4.794976e+00 -6.707004e-01 -4.161361e+00 134 142 148
-8.251957e-01 -6.035904e-01 2.050849e-01 189 191 192
-1.273817e+00 6.395463e-02 -1.531639e+00 194 125 72
-1.321951e+01 -3.860814e-01 -7.931207e+00 82 90 91
-5.601845e+01 -1.767415e+01 4.390290e+01 132 148 154
-5.608520e+01 -1.769349e+01 4.394220e+01 132 148 154
-1.029199e+02 -1.968665e+01 4.720050e+01 188 187 139
-4.064413e+02 3.812602e+01 -1.255863e+02 93 82 74
1.703593e+01 -2.339511e+00 -3.702177e+00 40 31 29
1.703593e+01 -2.339511e+00 -3.702177e+00 40 31 29
1.694185e+01 -2.334316e+00 -3.780579e+00 38 31 34
1.374476e+01 -1.417771e+00 -7.638007e+00 148 133 119
-1.392374e+00 -9.699362e-01 -1.187515e+01 200 197 194
-4.736169e+00 -2.188416e+00 -4.621479e+00 21 19 25
-4.050110e+00 -1.693738e+00 -4.152985e+00 49 48 55
-4.059512e+00 -1.694689e+00 -4.152875e+00 49 48 55
-4.874242e+00 -1.773966e+00 -4.593462e+00 102 106 109
-1.876234e+01 -1.170099e+00 -1.062236e+01 156 161 157
-5.580533e+01 -1.760881e+01 4.324149e+01 132 141 141
-6.825287e+01 -1.866668e+01 4.538585e+01 123 125 101
-1.031881e+02 -1.876050e+01 4.415443e+01 193 189 143
-9.868121e+01 -2.347743e-01 -2.794186e+01 132 133 141
-1.027726e+02 -1.738691e+01 4.900123e+01 79 98 104
-3.233080e+02 1.362903e+01 -7.857959e+01 62 68 57
1.717786e+01 -2.390099e+00 -3.528024e+00 63 45 46
-1.302649e+00 -2.998716e+00 3.240869e+00 234 238 238
-3.055019e+00 -3.795945e+00 5.098615e+00 162 181 192
-2.758399e+00 -3.492865e+00 5.014149e+00 246 251 251
-3.943961e+00 -1.246667e+00 -4.027124e+00 57 56 57
-4.041987e+00 -1.282369e+00 -4.021186e+00 57 56 57
-1.284632e+00 -2.348271e+00 3.317684e+00 224 189 195
-1.670834e+01 9.072441e-01 -2.087792e+01 210 212 202
-1.446266e+00 -2.751300e-01 -2.229149e+00 182 193 188
-4.840805e+00 -4.609897e-01 -4.019746e+00 25 22 24
-1.787386e+00 -1.045632e+00 2.821758e+00 58 61 74
-1.925239e+01 6.279076e-01 -1.034590e+01 22 17 23
-1.899690e+01 7.548423e-01 -1.015121e+01 106 108 106
-1.235397e+01 2.218515e+00 -6.840546e+00 165 175 174
-3.894499e+02 2.542612e+01 -1.170070e+02 210 207 175
-1.063724e+02 -5.553695e+00 5.051158e+01 116 109 93
1.716046e+01 -2.343799e+00 -3.551815e+00 234 204 164
-3.819254e+00 -2.199879e+00 -7.837852e+00 210 211 205
-3.816026e+00 -2.194620e+00 -7.841500e+00 210 211 205
-4.534581e+00 -1.606165e+00 -4.447215e+00 104 106 107
-1.347333e+00 -2.268169e+00 3.632889e+00 239 243 237
-2.706011e+00 -1.962064e-01 -3.228278e+00 165 171 160
-1.757374e+00 -1.303529e+00 3.260669e+00 36 42 69
-1.900222e+01 -1.140750e+00 -1.078428e+01 23 29 44
-7.409329e+00 2.710204e-01 -5.239125e+00 119 130 134
-7.482505e+00 3.330855e-01 -5.376942e+00 121 130 134
-4.659423e+01 -1.347820e+01 2.829202e+01 244 246 236
-4.659423e+01 -1.347820e+01 2.829202e+01 244 246 236
-1.874638e+01 3.877783e-01 -1.010957e+01 10 8 22
-5.485388e+01 -1.674214e+01 3.991604e+01 93 97 108
-7.740251e+01 -1.722798e+01 3.957868e+01 26 28 24
-3.296906e+02 1.873209e+01 -1.192776e+02 252 254 254
-3.043758e+02 1.305900e+01 -6.759139e+01 86 82 76
-1.065028e+02 -7.240704e+00 5.073507e+01 100 98 82
-1.067143e+02 -5.821131e+00 5.042875e+01 45 46 38
-2.551211e+02 1.147544e+01 -3.429700e+01 71 65 53
-1.058941e+02 -2.121186e+00 5.124200e+01 48 46 52
1.733410e+01 -2.422949e+00 -3.291595e+00 228 183 155
7.000699e-02 -3.169598e-01 -1.406027e+01 210 210 204
-1.318307e+00 -2.947555e+00 3.343055e+00 110 115 126
-3.762269e+00 -1.093831e+00 -3.786059e+00 25 26 26
-9.292353e-01 -3.220495e-02 -1.110070e+00 243 235 233
-1.997450e+01 -7.296770e-01 -1.102015e+01 146 145 144
-3.838972e+01 -1.312505e+01 2.782469e+01 182 183 111
-7.492794e+01 -1.738705e+01 4.381395e+01 90 101 54
-9.126978e+00 1.013241e+00 9.663501e-01 48 70 115
-9.191844e+01 -1.533368e+01 3.219833e+01 45 49 51
-3.061129e+02 2.876130e+00 -6.933728e+01 181 181 153
-3.367514e+02 1.203886e+01 -1.134581e+02 167 164 126
-2.207574e+02 1.243217e-01 -3.038737e+01 216 196 175
-2.349766e+02 8.234652e+00 -2.327969e+01 203 202 174
-9.564151e-01 -9.929704e-01 1.229581e+00 196 205 208
-1.699258e+00 -1.355925e+00 2.999953e+00 175 178 158
-1.773354e+00 -1.117493e+00 3.131322e+00 18 17 17
-1.722020e+00 -1.232516e+00 3.018311e+00 10 11 11
-8.824345e+00 6.743425e-01 2.200360e+00 40 46 59
-2.175762e+02 -7.025695e+00 -1.750233e+01 66 63 48
-1.136776e+00 -2.199165e+00 3.280963e+00 215 213 195
-1.332831e+00 -2.247966e+00 3.682151e+00 203 195 167
-1.983738e+02 -7.913371e+00 -5.823021e+00 123 109 80
-1.994211e+02 -6.154517e+00 -5.336823e+00 107 96 62
-1.645186e+00 -1.111215e+00 2.300495e+00 21 24 30
-1.753017e+00 -1.088705e+00 3.077922e+00 194 189 180
-5.075600e+00 -2.338720e+00 -7.253756e+00 61 55 44
-9.070614e+01 -9.521636e+00 7.971143e+00 59 58 30
-1.489579e+02 -8.977474e+00 -2.141011e+00 44 41 39
-1.981209e+02 -8.625848e+00 -6.220104e+00 172 153 120
-2.159797e+02 -6.260115e+00 -1.543930e+01 143 123 90
-1.300945e+00 -1.982584e+00 3.332603e+00 184 183 179
-1.742171e+00 -1.076956e+00 3.044463e+00 203 195 175
-1.780538e+00 -1.089463e+00 3.097319e+00 21 23 28
-3.324386e+01 1.652448e+00 -2.615090e+01 182 178 169
-1.985623e+02 -8.657260e+00 -6.818313e+00 44 43 15
-2.182656e+02 -2.725825e+00 -3.028628e+01 104 107 85
-1.981652e+02 5.094636e+00 -3.325244e+00 37 35 23
-1.339201e+00 -2.446970e+00 3.560340e+00 121 60 46
-1.339201e+00 -2.446970e+00 3.560340e+00 121 60 46
-1.225588e+00 -2.371395e+00 3.289907e+00 115 52 48
-1.327124e+00 -2.400650e+00 3.539327e+00 206 164 149
-4.067872e+00 -2.125290e+00 -8.070746e+00 158 148 131
-4.676015e+01 -8.483172e+00 5.366066e+00 69 60 55
-1.354617e+02 -1.076862e+01 9.411797e+00 158 150 84
-1.387269e+02 -1.007052e+01 4.292347e+00 49 49 47
-1.677468e+02 -7.122007e+00 -1.165190e+01 122 127 57
-1.799651e+02 -5.641662e+00 -1.853899e+01 155 157 81
-2.037490e+02 -3.413129e+00 -3.305929e+01 123 118 50
-1.300706e+00 -2.413083e+00 3.470584e+00 132 72 74
-1.300706e+00 -2.413083e+00 3.470584e+00 132 72 74
-1.342169e+00 -2.269225e+00 3.721276e+00 215 208 190
-1.716020e+00 -1.120234e+00 3.025917e+00 15 10 13
-3.324100e+01 -7.592987e+00 4.091303e+00 132 123 111
-1.982671e+02 -8.855168e+00 -7.321164e+00 153 150 106
-1.808731e+02 4.029923e-01 7.640043e+00 209 185 134
-2.162324e+02 8.182795e+00 -1.344256e+01 188 192 149
-1.809908e+02 6.313975e+00 8.269315e+00 186 189 158
-1.624603e+02 -5.458733e+00 1.759035e+01 77 77 80
-2.689752e+02 6.027899e+00 -4.800084e+01 52 56 50
-1.687907e+00 -1.036270e+00 2.794509e+00 30 31 31
-1.623262e+00 -1.259741e+00 2.807643e+00 61 66 56
-1.945179e+01 -3.672989e-01 -1.679581e+01 128 131 132
-1.248251e+01 3.342222e+00 -7.079232e-01 108 121 121
-1.113334e+00 5.135458e-01 -9.444285e-01 147 164 182
-1.650848e+00 -1.083991e+00 2.801606e+00 47 47 44
-2.440350e+01 -1.375782e+01 -2.597292e+00 110 103 82
-1.033594e+00 -2.729402e+00 2.696497e+00 117 131 129
-9.026744e-01 -2.779725e+00 2.449316e+00 59 57 60
-1.324614e+00 -2.400396e+00 3.540448e+00 204 165 150
-1.598119e+02 -7.896371e+00 -8.240163e+00 63 63 54
-2.500156e+02 1.210214e+00 -6.111684e+01 79 78 42
-1.658044e+02 -7.396845e+00 -1.003646e+01 155 154 70
-2.007021e+02 -3.577727e+00 -3.144341e+01 166 167 73
-2.343743e+02 -4.954674e+00 -3.003217e+01 101 92 53
-2.349744e+02 -2.639893e+00 -2.625129e+01 121 107 60
-1.683111e+02 -6.845577e+00 -1.193678e+01 124 128 54
-2.060532e+02 -3.365246e+00 -3.389117e+01 143 127 58
-2.172672e+02 -6.046718e+00 -1.598053e+01 143 125 84
-2.170859e+02 -2.867809e+00 -1.530108e+01 197 178 126
-1.432646e+02 -1.458242e+01 2.688530e+01 57 54 50
-1.429774e+02 -1.499753e+01 2.789129e+01 68 67 41
-1.986793e+02 -6.506048e+00 -4.593689e+00 47 41 22
-1.433366e+02 -3.559398e+00 2.849390e+01 203 196 161
-1.435049e+02 -7.875011e+00 2.823765e+01 221 213 178
-1.436234e+02 -6.905805e+00 2.815109e+01 158 149 129
-3.259909e+02 1.576780e+01 -1.204635e+02 104 107 97
-9.116233e+01 -1.548453e+01 3.264469e+01 52 60 49
-1.624694e+02 -1.170844e+01 1.663174e+01 78 76 54
-1.392846e+02 -9.967996e+00 3.866091e+00 52 55 44
-9.315837e-01 -2.771899e+00 2.536038e+00 147 146 157
-9.026886e+01 -1.576233e+01 3.297846e+01 90 99 94
-1.323969e+02 -1.182249e+01 1.656644e+01 112 87 60
-1.625857e+02 -1.186343e+01 1.744525e+01 122 111 83
-1.625203e+02 -6.236838e+00 1.837197e+01 87 79 40
-1.801769e+02 -1.037839e+01 5.375929e+00 33 35 28
-1.624009e+02 -8.808036e+00 1.745004e+01 43 46 29
-1.622257e+02 -1.166665e+01 1.617367e+01 107 97 68
-1.804182e+02 -8.931026e+00 5.291231e+00 40 42 30
-1.624609e+02 -9.078544e+00 1.705499e+01 166 151 104
-1.623934e+02 -8.914931e+00 1.679613e+01 58 59 45
-1.623792e+02 -8.920016e+00 1.679339e+01 58 59 45
-1.623823e+02 -8.254208e+00 1.713046e+01 102 99 68
-8.747800e-01 -2.620707e+00 2.387974e+00 91 95 107
-1.626879e+02 -1.264223e+01 1.732444e+01 62 55 40
-1.800448e+02 -1.082072e+01 5.412561e+00 54 56 40
-1.625490e+02 -9.793282e+00 1.707948e+01 49 50 26
-1.626647e+02 -8.686883e+00 1.784908e+01 146 133 98
-1.635651e+02 -6.710371e+00 1.867446e+01 195 175 125
-5.795955e+02 -1.736492e+01 3.578875e+00 125 137 111
-1.125431e+00 -2.841876e+00 2.962042e+00 217 212 198
-1.535824e+00 1.080900e-02 -2.032003e+00 36 36 29
-7.428116e+00 1.561777e+00 -7.704753e-01 56 65 71
-1.621990e+02 -1.160654e+01 1.593726e+01 47 48 35
-1.620720e+02 -1.160196e+01 1.676585e+01 61 60 41
-1.623404e+02 -1.052968e+01 1.629860e+01 38 42 25
-1.624476e+02 -1.020517e+01 1.720863e+01 48 57 29
-1.625322e+02 -9.812371e+00 1.685487e+01 191 169 135
-1.626837e+02 -8.480458e+00 1.774473e+01 66 68 43
-1.627474e+02 -8.028122e+00 1.805222e+01 175 162 112
-1.623822e+02 -7.676478e+00 1.727447e+01 199 184 149
-1.623822e+02 -7.676478e+00 1.727447e+01 199 184 149
-1.977421e+02 -1.140812e+00 -3.835357e+00 216 194 147
-5.898096e+00 -2.306542e+00 -9.761710e+00 90 85 63
-3.093595e-01 -1.456688e+00 -2.209257e-01 221 137 17
-1.316107e+00 -2.199144e+00 3.607917e+00 102 106 104
-7.425720e-01 -1.631290e+00 2.138713e+00 255 254 252
-1.623338e+02 -1.033875e+01 1.624487e+01 123 108 79
-1.625960e+02 -8.595753e+00 1.672967e+01 156 143 109
-6.442612e-01 -1.760416e+00 -7.064159e-01 87 88 77
-1.626125e+02 -8.421438e+00 1.686251e+01 205 185 146
-1.626257e+02 -8.120759e+00 1.770653e+01 66 55 17
-1.365745e+00 -2.297921e+00 3.738646e+00 224 226 224
-1.127668e+02 -2.005426e+01 5.588484e+01 50 82 85
-3.126625e+02 -5.244079e+01 1.589325e+02 241 245 244
-3.218967e+02 -5.379934e+01 1.611576e+02 132 153 156
-3.218967e+02 -5.379934e+01 1.611576e+02 132 153 156
-1.035866e+02 -2.040017e+01 4.943452e+01 179 175 124
-3.282231e+02 -4.826526e+01 1.500367e+02 95 104 125
-1.065429e+02 -1.894421e+01 5.011546e+01 50 52 34
-3.186179e+02 -4.810450e+01 1.492718e+02 241 244 247
-7.386415e-01 -2.547601e+00 2.123289e+00 248 251 237
-2.839497e+02 -5.049182e+01 1.413053e+02 240 246 241
-3.709674e+02 -4.825993e+01 1.081827e+02 210 216 205
-1.061029e+02 -1.480932e+01 4.985271e+01 207 205 161
-3.176809e+02 -5.180522e+01 1.612492e+02 139 133 143
-1.304103e+00 -5.050178e-01 -1.966075e+00 164 178 192
-1.323198e+00 4.878908e-01 -1.396540e+00 73 82 98
-1.062345e+02 -1.981939e+01 4.991969e+01 76 72 63
-8.755585e+01 -2.097330e+01 6.215400e+01 163 163 150
-2.148914e+02 -6.842613e+00 -1.752643e+01 85 89 82
-8.695184e+01 -2.212900e+01 6.044337e+01 56 56 52
-1.643238e+02 -3.203928e+01 9.466065e+01 117 127 94
-7.127162e+01 -1.830917e+01 4.373122e+01 125 129 111
-1.806845e+02 3.761280e-01 7.335661e+00 220 217 179
-1.075552e+00 -2.085917e+00 2.970210e+00 249 250 250
-3.695380e+00 -9.746944e-01 -3.776386e+00 119 121 117
-3.672030e+00 -9.699020e-01 -3.782541e+00 119 121 117
-8.778477e+01 -2.063143e+01 6.153900e+01 73 74 52
-8.764236e+01 -1.893517e+01 6.080912e+01 54 55 50
-4.634678e-01 -2.528538e+00 2.061219e-01 133 144 138
-1.315631e+00 -3.014832e+00 3.419177e+00 238 238 234
-1.315043e+00 -2.604552e+00 3.425056e+00 222 221 218
-4.365008e+00 -1.217582e+00 -4.174990e+00 138 139 141
-4.323151e+00 -1.204402e+00 -4.184360e+00 138 139 141
-1.387135e+01 2.359499e+00 -2.570809e+01 151 159 157
-8.770584e+01 -1.765612e+01 6.081710e+01 198 200 168
-1.435234e+02 -9.329155e+00 2.809392e+01 211 209 186
-1.976755e+02 6.096464e-01 -4.382717e+00 80 82 61
-9.867853e-01 -2.682352e+00 2.623738e+00 104 122 142
-7.709772e+01 -1.704375e+01 4.194641e+01 82 99 62
-7.727624e+00 1.910631e+00 -2.098006e+00 31 41 88
-8.754005e+01 -2.161912e+01 6.091721e+01 55 54 43
-1.340486e+01 2.930171e+00 -6.437107e+00 153 158 159
-2.516138e+02 2.769706e-01 -3.736329e+01 230 226 162
-1.981035e+02 -2.682463e+00 -4.905800e+00 182 177 150
-1.809285e+02 -3.666000e+00 7.099053e+00 230 226 182
-1.802468e+02 3.218936e+00 7.454141e+00 59 53 49
-4.864010e-01 -2.229212e+00 3.021700e-01 30 36 76
-8.084594e-01 -2.625926e+00 2.271563e+00 136 144 153
-7.546049e+01 -1.801439e+01 4.243764e+01 48 53 48
-8.662517e+01 -1.580562e+01 3.506143e+01 50 56 48
-1.448320e+02 -1.511168e+01 4.146999e+01 215 228 208
-8.757131e+01 -1.217154e+01 6.108167e+01 68 78 70
-1.981267e+02 1.760312e+00 -3.620424e+00 219 214 178
-2.160831e+02 -3.255189e+00 -1.581272e+01 196 178 138
-6.662402e-01 -4.158116e-01 8.972102e-01 210 214 225
-2.347870e+00 -2.891647e+00 -2.111307e+00 10 10 10
-5.920971e+00 1.543755e+00 -4.219286e+00 152 167 179
-1.491704e+00 2.268770e-01 -1.836864e+00 193 123 44
-9.015605e+01 -2.158353e+01 6.107624e+01 43 44 35
-3.562185e+00 -3.378897e+00 6.362997e+00 101 104 109
-1.935643e+00 5.775446e-01 -2.135973e+00 191 199 201
1.240827e+01 -2.185548e+00 -5.414169e+00 223 224 228
-6.338863e+00 4.701113e-01 -4.738160e+00 120 123 128
-2.115300e+01 2.809018e-03 -1.182995e+01 103 109 112
-6.257061e+01 -1.885688e+01 4.884220e+01 49 53 56
-4.397280e+00 -2.407412e+00 -4.568852e+00 114 120 126
-4.444063e+00 -1.343371e+00 -4.391274e+00 111 113 118
-8.410499e+00 2.354827e+00 -3.733237e+00 39 58 84
-8.891927e+00 3.032253e+00 -5.899363e+00 50 60 67
-1.030341e+02 -1.839651e+01 4.956021e+01 198 200 190
-4.208375e+00 -2.190435e+00 -4.349213e+00 10 12 11
-4.746046e+00 -2.061614e+00 -4.631281e+00 23 21 22
-4.758312e+00 -2.065147e+00 -4.628192e+00 23 21 22
-3.890349e+00 -1.853367e+00 -4.038416e+00 9 10 12
-2.981244e-01 -1.426077e+00 2.703692e-01 139 99 81
-4.132478e+00 -8.848881e-01 -3.813103e+00 14 14 16
-4.993589e+00 -7.011035e-01 -4.322214e+00 23 23 26
-4.547809e+00 -5.509314e-01 -3.988510e+00 8 9 12
-1.331562e+01 -1.977984e-01 -8.297949e+00 84 94 95
-1.351256e+01 2.752577e+00 -6.731890e+00 116 165 208
-1.654285e+02 -4.642011e+00 -2.303518e+01 155 156 153
1.683325e+01 -2.322853e+00 -3.834114e+00 40 31 27
1.683325e+01 -2.322853e+00 -3.834114e+00 40 31 27
1.675682e+01 -2.322851e+00 -3.891741e+00 41 38 42
1.675682e+01 -2.322851e+00 -3.891741e+00 41 38 42
-1.471819e+00 -1.013680e+00 -1.151293e+01 211 215 215
-1.327847e+00 -9.709837e-01 -1.152817e+01 211 215 215
-3.511536e+00 -1.599543e+00 -3.940898e+00 110 113 116
-5.004269e+00 -1.401055e+00 -4.581812e+00 111 111 122
-5.524971e+00 -1.425396e+00 -4.728010e+00 100 104 104
-5.284600e+00 -1.198169e+00 -4.553054e+00 15 15 20
-4.444915e+00 -1.046061e+00 -4.212014e+00 116 118 122
-5.414564e+00 -8.126821e-01 -4.480821e+00 103 108 110
-5.578822e+01 -2.022145e+01 5.273041e+01 100 102 89
-1.352414e+01 2.924756e+00 -6.547910e+00 38 50 62
-8.774103e+01 -1.922429e+01 6.133472e+01 120 117 103
-9.913660e+01 -4.221842e+00 -1.063731e+01 132 137 132
-1.069899e+02 -7.090179e+00 5.184515e+01 172 166 129
-7.433790e-01 -2.481416e+00 2.162881e+00 197 203 203
-9.650112e-01 -1.493377e+00 -5.626136e-01 151 92 41
-1.858357e+01 -6.483189e-01 -1.037502e+01 146 162 176
-4.103070e+01 -1.657876e+01 4.137566e+01 57 63 70
-7.456680e+01 -2.171733e+01 5.920263e+01 103 111 88
-1.219350e+01 2.114597e+00 -6.933920e+00 62 75 86
-1.295916e+01 2.060498e+00 -6.985550e+00 59 69 73
-8.558968e+01 -2.242662e+01 5.948452e+01 167 175 128
-1.565598e+02 -7.493161e+00 -1.072732e+01 149 149 152
-1.733896e+01 4.654589e+00 -6.791536e+00 124 168 191
-1.435518e+02 -4.292324e+00 2.859962e+01 227 227 194
1.871556e+01 1.233398e+00 -1.605158e+01 254 253 254
1.691969e+01 -2.345374e+00 -3.767525e+00 34 29 32
-4.625632e+00 -2.263687e+00 -4.614776e+00 18 21 26
-4.270732e+00 -1.929480e+00 -4.414331e+00 39 40 47
-1.150520e+00 -2.909345e+00 2.994253e+00 210 214 210
-4.607330e+00 -1.139759e+00 -4.311876e+00 113 117 119
-4.607330e+00 -1.139759e+00 -4.311876e+00 113 117 119
-1.894075e+01 -2.674911e-01 -1.683838e+01 161 177 181
-1.873790e+01 -1.008659e+00 -1.047060e+01 10 12 18
-2.000557e+01 -5.084429e-01 -1.101703e+01 99 103 105
-1.810834e+01 -2.647746e-01 -1.012409e+01 106 110 106
-6.867277e+01 -1.784466e+01 4.294499e+01 132 135 121
-8.050875e+01 -1.691822e+01 4.075512e+01 66 77 48
-8.612213e+01 -5.258752e+00 6.257070e+01 99 102 86
2.033603e+01 1.011720e+00 -1.511668e+01 240 213 193
2.033603e+01 1.011720e+00 -1.511668e+01 240 213 193
1.895090e+01 1.194480e+00 -1.585056e+01 248 250 253
1.717406e+01 -2.396892e+00 -3.650384e+00 145 146 136
1.710892e+01 -2.385647e+00 -3.585262e+00 64 47 34
-4.032524e+00 -1.753871e+00 -4.429402e+00 98 106 106
-4.415055e+00 -1.571681e+00 -4.476134e+00 101 107 105
-1.405213e+00 -2.519185e+00 3.552237e+00 221 224 213
-4.277920e+00 -1.078103e+00 -4.255754e+00 26 31 39
-6.785633e+00 -8.539971e-01 -5.254096e+00 25 31 28
-4.172191e+00 -5.816681e-01 -3.820516e+00 29 31 28
-4.260258e+00 -5.439243e-01 -3.880897e+00 154 159 159
-4.876726e+00 -4.834607e-01 -4.135100e+00 140 139 140
-4.118622e+01 -1.545762e+01 3.760377e+01 36 40 54
-5.646787e+01 -2.009237e+01 5.276904e+01 29 30 25
-1.295999e+01 7.756146e-01 -7.851996e+00 60 64 65
-6.111075e+01 -1.937634e+01 5.038116e+01 84 91 91
-1.421320e+01 3.057351e+00 -6.836803e+00 106 116 117
-8.968936e+01 -1.370606e+00 -2.211404e+01 175 176 169
-1.751460e+01 3.390530e+00 -8.217653e+00 34 50 73
-8.744362e+01 -1.102876e+01 6.130750e+01 75 81 75
-1.260121e+02 -7.890617e+00 4.075633e+01 178 180 150
-1.262236e+02 -3.566511e+00 4.207670e+01 50 57 38
-1.615610e+02 5.058317e+00 1.970824e+01 205 198 185
1.395692e+01 -1.243420e+00 -8.221239e+00 250 251 251
-4.482782e+00 -2.407448e+00 -4.424729e+00 37 41 53
-4.171657e+00 -1.709413e+00 -4.426605e+00 22 26 35
-4.633149e+00 -1.615271e+00 -4.535662e+00 20 25 33
-4.720809e+00 -1.641862e+00 -4.514676e+00 20 25 33
-4.031979e+00 -1.404008e+00 -4.231001e+00 28 31 46
-4.178946e+00 -1.283378e+00 -4.195072e+00 13 19 26
-1.120508e+00 3.575050e-01 -1.142162e+00 218 212 213
-1.894076e+01 6.479004e-01 -1.014444e+01 25 26 22
-7.423543e+01 -1.762972e+01 4.159004e+01 40 43 47
-7.134166e+01 -1.795782e+01 4.648742e+01 183 184 126
-1.522788e+02 -8.699797e+00 -2.792308e+00 132 152 93
-8.774242e+01 -1.354566e+01 6.083794e+01 78 84 77
-8.748441e+01 -1.147694e+01 6.120330e+01 77 88 80
-1.248656e+02 -5.600176e+00 4.149708e+01 85 88 70
-1.803456e+02 1.016908e+00 9.349512e+00 211 214 185
-3.877861e+00 -2.053158e+00 -8.201442e+00 80 73 69
-1.905642e+01 1.458921e+00 9.120722e+00 54 87 68
-5.863686e+02 -5.231037e+01 8.201426e+01 96 101 96
-1.437486e+02 -1.041180e+01 2.840132e+01 97 85 44
-4.827012e+01 2.958756e+00 -3.326201e+01 218 219 188
-4.827012e+01 2.958756e+00 -3.326201e+01 218 219 188
-1.874491e+01 1.493724e+00 9.098693e+00 214 220 191
-1.983657e+02 3.088406e+00 -3.330448e+00 54 46 8
-1.975942e+02 -7.249219e+00 -5.048752e+00 73 64 32
-1.978175e+02 -7.902686e+00 -5.118302e+00 75 68 25
-1.397018e+02 -1.012428e+01 3.177626e+00 160 146 116
-1.431769e+02 -8.445400e+00 2.882992e+01 69 63 18
-1.431769e+02 -8.445400e+00 2.882992e+01 69 63 18
-1.984863e+02 -1.543025e+00 -4.555139e+00 220 197 157
-1.803911e+02 -3.485964e+00 6.381662e+00 204 182 124
-1.803911e+02 -3.485964e+00 6.381662e+00 204 182 124
-2.969573e+00 -3.609317e+00 3.463414e-01 17 17 17
-5.204901e+00 -1.678287e+00 -4.655038e+00 17 15 17
-1.376115e+01 2.860398e+00 -7.000657e+00 116 158 206
-4.404103e+00 -1.683559e+00 -4.365769e+00 109 118 121
-4.196635e+00 -1.366644e+00 -4.194997e+00 119 121 123
-5.052856e+00 -1.027091e+00 -4.427115e+00 121 128 130
-4.375045e-01 -1.636764e+00 -1.369762e+00 222 232 219
-4.535237e+00 -2.424326e+00 -4.410518e+00 34 37 54
-4.838080e+00 -1.513474e+00 -4.485707e+00 16 14 24
-1.648986e+00 -2.181395e+00 4.050446e+00 247 250 249
-1.757959e+00 -1.215148e+00 2.932421e+00 36 40 52
-6.451241e+00 2.607789e-01 -5.005685e+00 103 118 120
-1.067601e+02 -1.765044e+01 4.978399e+01 168 167 128
-1.067601e+02 -1.765044e+01 4.978399e+01 168 167 128
-3.268442e+02 1.932840e+01 -1.349519e+02 245 248 241
-5.805718e+02 5.102720e+01 -2.701388e+02 255 255 255
-9.284405e-01 -2.743337e+00 2.530368e+00 124 122 138
-2.588306e+02 1.934410e+01 -3.339168e+01 203 209 213
-1.975314e+02 3.521923e+01 -1.650577e+02 130 115 58
-9.978804e-01 -2.724691e+00 2.760235e+00 170 181 176
-2.133583e+02 1.740018e+01 -8.494625e+01 255 255 253
-5.802101e+02 4.958279e+01 -2.905470e+02 255 255 247
-3.750672e+02 2.365423e+01 -1.080986e+02 225 220 183
-1.252082e+00 -2.904637e+00 3.205561e+00 113 115 133
-5.312758e-01 -1.680767e+00 -9.714528e-01 22 25 24
-1.206692e+00 -3.714639e-01 2.540868e-01 250 247 238
-9.759063e-01 -3.587609e-01 -1.796909e-01 129 130 121
-3.720740e+02 1.810136e+01 -1.347234e+02 185 174 154
-1.095091e+00 -2.852920e+00 2.824195e+00 225 222 223
-1.095091e+00 -2.852920e+00 2.824195e+00 225 222 223
-1.233798e+00 -2.833344e+00 3.199529e+00 170 189 193
-8.493757e-01 -1.983068e+00 2.891772e+00 223 220 213
-3.566062e+00 -1.165411e+00 -3.727477e+00 34 35 36
-4.185104e+00 -2.327061e+00 -4.497085e+00 102 105 109
-4.730631e+00 -6.722255e-01 -4.142125e+00 133 135 137
-4.730631e+00 -6.722255e-01 -4.142125e+00 133 135 137
-3.820284e+00 -1.408635e+00 -4.000741e+00 156 170 183
-5.815259e+02 -4.822243e+01 7.428673e+01 68 91 109
-1.435064e+02 -4.278906e+00 2.973872e+01 242 236 212
-3.150346e+00 5.957526e-01 -2.826409e+00 175 170 154
-2.095373e+00 -1.327909e+00 3.390450e+00 212 203 187
-1.396768e+00 7.483188e-01 -1.681923e+00 173 178 180
-1.814143e+02 -7.099624e+00 4.956333e+00 31 31 27
-1.623620e+02 -9.590689e+00 1.682670e+01 180 168 130
-1.809032e+02 -6.639495e+00 5.632552e+00 163 152 107
-1.807900e+02 -1.095042e+01 4.453929e+00 59 59 48
-1.809608e+02 -6.790682e+00 6.130117e+00 53 51 29
-1.809608e+02 -6.790682e+00 6.130117e+00 53 51 29
-1.223298e+00 -2.588016e+00 3.194540e+00 85 97 110
-1.802390e+02 -1.133336e+01 5.217766e+00 87 81 60
-4.417047e+01 -8.094831e-01 1.014483e+01 143 144 119
-1.623154e+02 -9.250315e+00 1.726389e+01 63 59 31
-4.720218e+02 -3.745995e+01 5.445529e+01 64 75 70
-1.808945e+02 -4.658542e+00 6.915166e+00 205 184 121
-1.627842e+02 -5.821211e+00 1.857234e+01 106 91 56
-1.987231e+02 -1.209533e+00 -5.040486e+00 134 125 87
-1.986588e+02 1.086845e+00 -4.349129e+00 61 61 34
-1.206667e+00 -2.839273e+00 3.164308e+00 164 176 176
-1.230519e+00 -2.835613e+00 3.164790e+00 164 176 176
-1.379758e+02 -1.022796e+01 5.071772e+00 42 44 29
-1.800905e+02 -1.082504e+01 5.415812e+00 54 56 40
-1.804545e+02 -9.410456e+00 5.327610e+00 53 52 38
-1.988037e+02 -6.613841e+00 -4.844184e+00 43 40 27
-1.985410e+02 -6.081445e+00 -4.849391e+00 49 49 36
-1.985362e+02 -4.919549e+00 -5.289893e+00 121 108 79
-1.985526e+02 -4.920492e+00 -5.288784e+00 121 108 79
-1.624548e+02 -7.119282e+00 1.812002e+01 111 108 53
-1.987401e+02 -3.266408e+00 -4.802488e+00 191 171 122
-1.807169e+02 -4.753794e+00 6.586298e+00 84 79 30
-1.988109e+02 -9.723112e-01 -4.434453e+00 48 46 30
-1.989682e+02 1.338955e+00 -4.093755e+00 178 162 116
-1.052131e+00 -2.193873e+00 2.992664e+00 161 118 104
-1.805932e+02 -1.083976e+01 4.751925e+00 127 108 73
-1.806175e+02 -9.931423e+00 5.631525e+00 58 54 33
-1.621991e+02 -1.108984e+01 1.636481e+01 99 87 59
-1.808279e+02 -8.365670e+00 5.272161e+00 153 142 104
-1.983537e+02 -6.830138e+00 -5.571927e+00 60 55 36
-1.809720e+02 -7.472836e+00 6.113374e+00 144 132 85
-1.985916e+02 -4.731264e+00 -5.512229e+00 49 46 29
-1.984991e+02 -4.124265e+00 -5.365127e+00 56 60 28
-1.986646e+02 -3.841520e+00 -5.227835e+00 118 105 67
-1.810355e+02 -5.565322e+00 6.641048e+00 212 192 128
-1.989553e+02 -3.589911e+00 -4.691672e+00 72 66 36
-1.807364e+02 -4.960026e+00 6.425854e+00 80 73 32
-1.807383e+02 -4.758224e+00 6.308516e+00 210 192 138
-1.807383e+02 -4.758224e+00 6.308516e+00 210 192 138
-1.811726e+02 -4.252872e+00 6.923394e+00 84 87 46
