ply
format ascii 1.0
element vertex 919
property float x
property float y
property float z
property uchar diffuse_red
property uchar diffuse_green
property uchar diffuse_blue
end_header
-2.178369e+02 -2.261610e+00 -4.178284e+01 208 152 114
-2.178511e+02 -2.256702e+00 -4.143354e+01 188 137 100
-2.187647e+02 -2.078060e+00 -4.208486e+01 59 57 29
-2.232148e+02 -8.452857e-01 -3.146379e+01 173 157 131
-2.365779e+02 -2.864133e+00 -2.675139e+01 76 61 33
-2.235344e+02 -2.907051e-01 -3.089287e+01 223 160 132
-1.105111e+00 -2.968376e+00 3.226906e+00 221 219 208
-1.221669e+00 -2.965383e+00 3.520517e+00 228 224 219
-1.269375e+00 -2.759079e+00 3.595512e+00 218 211 210
-6.143522e-01 -1.612245e+00 4.168067e-02 66 51 38
-1.100339e+00 -2.207906e+00 3.429307e+00 215 203 195
-8.770936e-01 -2.005810e+00 2.949366e+00 101 99 89
-2.564755e+00 -1.992099e+00 4.901346e+00 125 127 113
-7.482146e+00 1.608145e+00 -5.965683e-01 109 120 130
-8.850830e+00 7.262982e-01 2.381672e+00 115 126 133
-1.166580e+00 -2.964772e+00 3.351049e+00 215 215 207
-1.236622e+00 -2.832008e+00 3.445881e+00 177 191 193
-1.281245e+00 -2.898274e+00 3.576722e+00 176 189 194
-8.515816e-01 -2.777983e+00 2.686856e+00 90 90 88
-7.220809e-01 -1.146031e+00 -4.270721e-01 126 128 116
-6.645005e-01 -1.123145e+00 -8.451772e-01 152 86 14
-1.009805e+00 1.961502e-01 -5.847808e-01 242 239 233
-1.380922e+00 -2.721074e+00 3.857135e+00 236 235 229
-9.934721e-01 -6.075675e-01 1.226187e+00 252 252 252
-1.031444e+00 3.310298e-01 -7.056263e-01 221 223 220
-1.202015e+00 -2.990744e+00 3.461307e+00 245 246 241
-1.726615e+00 -1.261394e+00 3.361040e+00 45 54 77
-8.933067e-01 -1.213136e+00 -7.240104e-01 195 128 34
-7.713446e-01 -1.816765e-01 -1.029799e+00 209 202 182
-3.497900e+00 -2.271350e+00 6.027197e+00 241 240 234
-1.032583e+01 6.905560e-01 2.939119e+00 73 84 84
-1.368758e+00 -2.873671e+00 3.685913e+00 92 108 120
-1.727450e+00 -1.227443e+00 3.483123e+00 225 229 209
-1.812682e+00 -1.095108e+00 3.458993e+00 70 69 101
-7.073924e+00 -4.241998e+00 5.763771e+00 58 58 61
-3.392619e+02 2.883420e+01 -1.419627e+02 254 254 253
-7.781137e+00 -4.983721e+00 -3.796519e+00 99 92 80
-3.519765e+02 1.856423e+01 -1.202835e+02 254 255 254
-3.389818e+02 2.601599e+01 -1.397392e+02 253 255 253
-2.894860e+02 1.016647e-01 -5.871056e+01 93 79 62
-3.254698e+02 4.554932e+00 -8.188927e+01 66 60 47
-3.255321e+02 4.648219e+00 -7.972565e+01 109 102 70
-3.513940e+02 1.512735e+01 -1.192084e+02 93 93 85
-2.719522e+02 4.879168e+00 -4.864462e+01 186 182 148
-2.240237e+02 -1.370998e+00 -4.581655e+01 72 68 61
-3.098276e+02 2.923506e+00 -7.025107e+01 190 189 150
-6.280154e+02 5.548073e+01 -2.453316e+02 105 102 62
-3.449560e+02 2.693628e+01 -1.330588e+02 83 100 125
-2.379642e+02 1.481032e+01 -2.146051e+01 36 36 40
-2.376878e+02 1.482234e+01 -2.141689e+01 36 36 40
-4.838945e-01 -8.349131e-01 2.525304e+00 19 22 33
-3.789702e+02 3.804221e+01 -1.083682e+02 210 203 195
-3.801772e+02 4.071904e+01 -1.069939e+02 86 72 71
-3.429747e+02 2.549505e+01 -1.352559e+02 78 92 136
-2.915943e+02 1.157655e+01 -5.599507e+01 238 228 195
-3.794681e+02 2.281609e+01 -1.097048e+02 218 212 186
-4.152816e+02 2.831564e+01 -1.294909e+02 189 177 139
-4.315340e+02 3.213984e+01 -1.413346e+02 102 95 77
-2.187310e+02 6.867834e+00 -1.368791e+01 27 30 18
-4.405640e+02 3.929279e+01 -1.439802e+02 215 191 160
-3.086260e+02 1.707512e+00 -7.097398e+01 174 165 142
-4.145206e+02 2.217086e+01 -1.318008e+02 35 36 14
-3.445936e+02 2.513096e+01 -1.338871e+02 124 126 172
-3.437884e+02 2.509203e+01 -1.335416e+02 124 126 172
-2.913312e+02 1.129546e+01 -5.665892e+01 163 147 121
-2.913344e+02 1.256410e+01 -5.639627e+01 182 171 142
-1.337368e+02 -1.169648e+01 1.773067e+01 150 138 138
-4.142632e+02 2.985172e+01 -1.299519e+02 71 59 38
-3.793644e+02 4.250194e+01 -1.071546e+02 135 129 127
-3.793644e+02 4.250194e+01 -1.071546e+02 135 129 127
-3.474436e+02 2.594828e+01 -1.479853e+02 255 254 252
-3.477482e+02 2.593844e+01 -1.480813e+02 255 254 252
-1.454726e+02 -1.473203e+01 2.598772e+01 49 49 42
-1.468816e+02 -1.374935e+01 2.578249e+01 195 196 182
-3.287997e+02 1.757455e+01 -1.385521e+02 154 155 157
-3.527312e+02 2.617557e+01 -1.290716e+02 244 243 239
-3.792612e+02 3.701173e+01 -1.068317e+02 140 136 123
-3.792612e+02 3.701173e+01 -1.068317e+02 140 136 123
-1.637656e+02 -1.339824e+01 1.613800e+01 45 43 34
-1.445311e+02 -1.330895e+01 2.761632e+01 52 51 39
-1.445755e+02 -1.184396e+01 2.806409e+01 71 71 54
-1.445755e+02 -1.184396e+01 2.806409e+01 71 71 54
-1.450642e+02 -8.655992e+00 2.824027e+01 177 171 136
-1.446403e+02 -4.343606e+00 2.878426e+01 224 217 176
-1.446813e+02 -4.330909e+00 2.940996e+01 34 35 25
-3.861366e+02 4.173738e+01 -1.104227e+02 249 245 241
-9.488097e+01 -1.543358e+01 3.078263e+01 33 39 28
-9.720563e+01 -1.130177e+01 1.701976e+01 78 81 74
-1.438726e+02 -1.499376e+01 2.748547e+01 153 146 122
-1.623631e+02 -1.357162e+01 1.549232e+01 142 139 98
-1.448029e+02 -1.363668e+01 2.628946e+01 53 52 58
-1.445047e+02 -9.358268e+00 2.827152e+01 205 200 158
-2.199324e+02 -3.011573e+00 -1.609867e+01 214 210 180
-1.449859e+02 -5.957282e+00 2.956332e+01 198 193 154
-1.449859e+02 -5.957282e+00 2.956332e+01 198 193 154
-1.458542e+02 -3.389954e+00 2.838373e+01 44 50 35
-2.360278e+02 6.558661e+00 -2.442412e+01 185 177 138
-2.374248e+02 6.842086e+00 -2.546211e+01 36 36 23
-2.393492e+02 1.675028e+01 -2.203624e+01 237 239 237
-1.034853e+01 2.563015e+00 -2.306122e+01 210 213 207
-1.624779e+02 -1.353061e+01 1.667720e+01 169 165 136
-1.443357e+02 -1.244452e+01 2.733038e+01 115 110 80
-1.450971e+02 -7.047510e+00 2.946429e+01 109 107 81
-1.447143e+02 -4.893171e+00 2.922045e+01 49 46 35
-1.999385e+02 6.193142e-01 -4.397731e+00 77 84 46
-3.478166e+02 2.180807e+01 -1.238274e+02 89 98 124
-1.443810e+02 -3.024085e+00 2.864551e+01 213 206 165
-1.003412e+02 -1.434850e+01 2.879372e+01 146 147 101
-1.330320e+02 -1.246683e+01 1.710321e+01 252 251 243
-1.441506e+02 -1.423984e+01 2.690652e+01 52 53 42
-1.438474e+02 -1.424348e+01 2.820114e+01 43 39 21
-1.446302e+02 -1.205742e+01 2.745564e+01 44 41 29
-1.454515e+02 -1.213187e+01 2.754826e+01 44 41 29
-1.446947e+02 -1.100984e+01 2.761262e+01 192 189 156
-1.446387e+02 -1.034502e+01 2.824185e+01 203 193 169
-1.822974e+02 -2.728621e+00 6.238263e+00 174 174 145
-3.418832e+02 2.300435e+01 -1.421745e+02 254 254 227
-2.728187e+02 8.000189e+00 -4.852842e+01 218 214 168
-1.638389e+02 -2.553891e+00 1.834690e+01 83 89 57
-2.364926e+02 9.659040e+00 -2.294554e+01 204 196 141
-1.621805e+02 -1.375954e+01 1.601547e+01 166 162 115
-1.817877e+02 -1.100296e+01 5.729472e+00 78 71 52
-3.605864e+02 2.212430e+01 -1.591750e+02 84 96 115
-2.368333e+02 8.284641e-01 -2.601226e+01 233 220 193
-4.120566e+02 2.937494e+01 -1.833875e+02 105 109 108
-3.423314e+02 2.180219e+01 -1.357591e+02 214 213 209
-3.423314e+02 2.180219e+01 -1.357591e+02 214 213 209
-1.823434e+02 -2.040886e+00 6.336270e+00 217 214 179
-1.642103e+02 -3.112813e+00 1.829100e+01 93 97 56
-4.081645e+02 3.194573e+01 -1.800545e+02 61 57 78
-3.419589e+02 2.685244e+01 -1.425068e+02 254 254 251
-2.571991e+02 6.657703e+00 -3.630056e+01 199 187 134
-1.444583e+02 -3.511000e+00 2.992421e+01 79 74 55
-2.188342e+02 8.911035e+00 -1.345772e+01 73 69 33
-6.507499e-01 -2.464633e+00 2.216642e+00 14 14 14
-2.729823e+02 -8.748185e-01 -4.889139e+01 127 112 83
-2.910129e+02 -2.888107e-01 -5.933609e+01 53 53 40
-2.545060e+02 -3.532087e+00 -3.962847e+01 141 134 87
-2.736987e+02 -1.668885e+00 -5.068786e+01 124 106 74
-3.120712e+02 1.646144e+00 -7.249719e+01 62 65 41
-2.913075e+02 -1.314524e-01 -6.043017e+01 54 51 38
-2.918489e+02 -3.625792e-01 -5.901505e+01 155 138 105
-2.736234e+02 1.013001e+00 -4.966294e+01 113 101 70
-2.914770e+02 -3.123518e-02 -5.993582e+01 150 130 109
-2.914770e+02 -3.123518e-02 -5.993582e+01 150 130 109
-2.734021e+02 9.880106e-02 -4.858313e+01 201 177 146
-3.129892e+02 3.832745e+00 -7.052796e+01 149 133 98
-2.732752e+02 1.107069e+00 -4.864862e+01 58 61 40
-3.119169e+02 2.401199e+00 -7.152219e+01 138 127 92
-2.920523e+02 8.956453e-01 -6.003660e+01 132 125 100
-2.916170e+02 9.639152e-01 -5.952209e+01 65 69 51
-2.918182e+02 1.187887e+00 -6.012328e+01 62 61 43
-2.736138e+02 -2.371257e-01 -4.954514e+01 62 64 42
-2.915353e+02 1.341672e+00 -5.935636e+01 76 78 63
-2.917694e+02 1.821986e+00 -5.969691e+01 172 156 128
-2.917694e+02 1.821986e+00 -5.969691e+01 172 156 128
-2.740755e+02 3.506545e-01 -4.948598e+01 57 57 31
-2.923563e+02 3.185802e+00 -5.986634e+01 140 133 105
-2.733404e+02 1.391437e+00 -4.855536e+01 66 67 42
-3.136885e+02 2.092716e+00 -7.281147e+01 129 129 73
-2.920244e+02 9.362864e-01 -6.049995e+01 114 106 86
-2.919983e+02 1.749563e+00 -5.902406e+01 167 155 122
-2.928943e+02 1.715812e+00 -5.876209e+01 152 141 108
-2.736554e+02 6.559508e-01 -4.886765e+01 63 66 36
-2.735295e+02 7.358119e-01 -4.861119e+01 127 115 92
-3.116712e+02 2.117983e+00 -7.083144e+01 84 70 40
-2.918186e+02 5.288853e-01 -5.974339e+01 115 102 85
-2.918186e+02 5.288853e-01 -5.974339e+01 115 102 85
-2.733817e+02 4.757342e-01 -4.903535e+01 114 100 71
5.018079e-01 -2.721386e-02 8.824952e-01 248 249 246
-1.181749e+00 -2.442519e+00 -2.200038e+00 10 10 10
-3.739069e+00 -2.887872e+00 6.420586e+00 217 231 240
1.328259e+01 -1.505990e+00 -6.924220e+00 125 129 129
-3.277897e+00 -3.850106e+00 5.471026e+00 220 231 233
-2.922341e+00 -2.224908e+00 5.232403e+00 203 220 231
-1.731480e+00 -1.118215e+00 2.902444e+00 233 236 220
-1.345381e+00 -2.643299e+00 4.402373e+00 199 209 209
-9.312725e-01 -3.414388e-01 1.446216e+00 254 254 254
-9.177906e+01 -1.572877e+01 3.288045e+01 45 52 51
-3.489225e-01 -4.975245e-01 -1.295559e+01 221 223 222
-4.343467e-01 -5.120324e-01 -1.299837e+01 221 223 222
-4.524078e-01 -5.760716e-01 -1.261186e+01 241 240 243
-4.295023e-01 -1.671434e+00 -1.155185e+00 248 248 246
-3.264128e+00 -3.669441e+00 5.664030e+00 200 212 215
-1.033907e+02 -1.409936e+01 2.679834e+01 63 66 53
-1.110660e+02 -1.447943e+01 2.842887e+01 198 188 141
1.725747e+01 -2.303029e+00 -3.487602e+00 48 41 44
1.725747e+01 -2.303029e+00 -3.487602e+00 48 41 44
-9.148866e-01 -2.408834e+00 2.822378e+00 247 247 246
-1.054925e+00 -1.987850e+00 3.321945e+00 128 131 145
-4.126698e+01 -1.021879e+01 1.743055e+01 121 117 114
-4.126698e+01 -1.021879e+01 1.743055e+01 121 117 114
-4.404228e+01 -1.137028e+01 2.117764e+01 47 54 60
-6.822999e+01 -1.353184e+01 2.648548e+01 72 82 89
-6.812242e+01 -1.205855e+01 2.179324e+01 75 80 83
-9.578514e+01 -1.525050e+01 2.930669e+01 103 111 88
-9.650038e+01 -1.100342e+01 1.887204e+01 217 206 151
1.666973e+01 -5.333266e-01 -5.928559e+00 162 160 171
1.352070e+01 -1.516769e+00 -7.096628e+00 246 247 247
-1.369113e+00 -2.315688e+00 4.050193e+00 250 253 251
-6.828189e-01 -1.717014e+00 2.344733e+00 76 83 98
-1.790106e+01 2.619216e-01 -1.909232e+01 62 78 91
4.635284e+00 8.955289e-02 2.993661e+00 39 46 69
-1.655830e+00 -1.206732e+00 3.140303e+00 47 51 71
-4.238006e+01 -1.044007e+01 1.753726e+01 126 123 121
-8.481248e+01 -1.642245e+01 3.740525e+01 43 48 51
1.102272e+01 -2.794560e+00 -3.098963e+00 249 249 247
3.975928e-01 -3.296133e-02 -1.469340e+01 240 239 235
-1.290171e-01 -2.565137e-01 -1.400766e+01 226 226 221
-5.669824e-01 -2.319303e+00 2.184629e+00 78 84 72
-1.027919e+00 -1.096564e+00 1.329290e+00 184 203 216
-1.725907e+01 7.053429e-01 -2.023211e+01 228 228 218
-4.232247e+01 -1.141740e+01 2.165846e+01 255 255 253
-5.942177e+01 -1.175725e+01 2.073504e+01 121 123 116
-8.094436e+01 -1.712983e+01 3.891117e+01 33 37 36
-9.111618e+01 -1.589288e+01 3.294258e+01 34 42 32
-9.423243e+01 -1.555365e+01 3.114611e+01 35 36 34
-9.845441e+01 -1.112371e+01 1.715306e+01 198 188 138
-1.003147e+02 -1.220326e+01 2.103941e+01 131 138 96
-1.003147e+02 -1.220326e+01 2.103941e+01 131 138 96
-1.146675e+02 -1.501286e+01 2.989270e+01 240 228 184
-1.149797e+02 -1.504570e+01 2.995140e+01 240 228 184
1.751652e+01 -2.417006e+00 -3.070983e+00 229 186 140
1.097860e+01 -2.764806e+00 -3.072708e+00 97 94 59
-9.333231e-01 -2.656393e+00 2.769411e+00 225 237 244
-6.239444e-01 -2.155388e+00 2.297642e+00 141 149 150
-1.844539e+01 1.346038e-01 -1.828680e+01 162 178 162
-1.691292e+00 -1.084055e+00 3.199184e+00 60 57 85
-1.787812e+00 -1.156814e+00 3.434460e+00 226 225 222
-4.446399e+00 -1.688172e+00 6.622996e+00 35 44 67
-4.508630e+00 -1.700189e+00 6.627185e+00 35 44 67
-4.311009e+01 -1.160998e+01 2.204484e+01 252 252 250
-4.311009e+01 -1.160998e+01 2.204484e+01 252 252 250
-8.064466e+01 -1.701338e+01 3.852211e+01 34 34 28
-6.372158e+01 5.411994e+00 -4.428956e+01 181 171 150
-9.057790e+01 -1.547215e+01 3.115621e+01 108 114 87
-9.631803e+01 -1.595806e+01 3.083722e+01 113 124 96
-8.903394e+01 -1.574418e+01 3.445185e+01 36 46 34
-1.007148e+02 -1.262234e+01 2.164506e+01 220 216 197
-1.004411e+02 -1.177176e+01 2.018546e+01 229 214 164
-1.154709e+02 -1.447679e+01 2.912575e+01 66 58 39
-1.794971e+01 3.885432e-01 -1.913328e+01 160 171 118
-2.801957e+00 -5.205761e-02 -3.039194e+00 159 167 145
-8.111280e+01 -1.699537e+01 3.831430e+01 31 33 24
-8.581232e+01 -1.630160e+01 3.446001e+01 49 59 37
-8.581232e+01 -1.630160e+01 3.446001e+01 49 59 37
-9.148697e+01 -1.554002e+01 3.171951e+01 41 40 37
-8.992323e+01 -1.257903e+01 1.978686e+01 125 132 98
-9.282032e+01 -1.548531e+01 3.210514e+01 98 106 107
-9.734503e+01 -1.242626e+01 1.806192e+01 71 76 79
-9.994640e+01 -1.466970e+01 2.706884e+01 45 45 45
-1.002924e+02 -1.434243e+01 2.926735e+01 134 131 93
-9.813861e+00 2.945297e+00 -3.321122e+00 59 78 93
-1.463079e+00 -4.580190e-01 -1.805958e+00 165 160 131
-4.604982e+00 -9.289869e-01 -3.991418e+00 111 107 97
-1.158053e+01 4.284973e+00 -3.443927e+00 55 65 84
-1.169331e+01 8.567102e-02 4.458535e+00 75 74 71
-1.103387e+01 3.882043e+00 -3.238100e+00 110 122 121
-1.103387e+01 3.882043e+00 -3.238100e+00 110 122 121
-6.542043e+00 -7.200549e-02 -4.927416e+00 83 84 78
-4.342631e+00 -2.375696e+00 -4.373880e+00 75 71 62
-4.287955e+00 -1.056075e+00 -3.831035e+00 119 124 128
-2.872687e+00 6.235978e-02 -2.966865e+00 167 164 136
-9.764978e-01 -1.301641e-01 -4.067819e-01 158 151 139
-1.774982e+00 4.672238e-01 -1.613285e+00 105 83 61
-8.316748e+00 2.491380e+00 -3.929830e+00 191 200 204
-4.042682e+00 -2.056281e+00 -4.009040e+00 150 159 167
-3.690624e+00 -1.187720e+00 -3.707005e+00 44 45 36
-8.552330e+00 2.550785e+00 -4.345742e+00 188 204 213
-9.542683e+00 3.018315e+00 -5.766078e+00 68 69 62
-9.542683e+00 3.018315e+00 -5.766078e+00 68 69 62
-5.262187e+00 -1.944208e+00 -4.611595e+00 109 106 91
-8.610034e-01 -2.561788e+00 2.969037e+00 201 194 177
-1.170482e+00 -1.166480e-01 -1.223737e+00 198 179 143
-7.525445e+00 1.891841e+00 -2.126324e+00 142 158 173
-2.863329e+00 -1.644739e+00 -9.592035e+00 213 206 190
-2.863329e+00 -1.644739e+00 -9.592035e+00 213 206 190
-6.383565e+00 -2.576123e+00 -8.152219e+00 58 57 51
-4.971060e+00 -2.212992e+00 -4.580380e+00 99 95 83
-7.124183e-01 -2.742734e+00 2.618535e+00 226 223 206
-8.150894e-01 -2.661393e+00 2.621372e+00 104 104 96
-5.464273e-01 -2.070067e+00 1.016730e+00 98 97 92
-1.006909e+00 -9.912247e-01 1.444219e+00 253 255 254
-1.183101e+01 4.564496e+00 -3.629369e+00 138 160 183
-4.395046e+00 -2.232113e+00 -4.179486e+00 16 18 15
-4.002780e+00 -9.414412e-01 -3.644555e+00 14 15 15
-2.039027e+01 2.524997e+00 -2.769281e+00 159 175 174
-6.976291e-01 -2.196697e+00 2.061455e+00 71 71 66
-3.769842e-01 -1.396921e+00 3.791217e-01 193 110 17
-4.868945e+00 -4.752489e-01 -3.948196e+00 129 120 110
-7.753090e+00 1.940171e+00 -2.007781e+00 36 38 37
-1.425059e+01 4.939309e+00 -5.027668e+00 43 52 71
-4.346140e+00 -1.760853e+00 -4.203963e+00 40 37 35
-4.346140e+00 -1.760853e+00 -4.203963e+00 40 37 35
-1.392002e+00 -2.869163e+00 3.847471e+00 216 203 173
-4.584064e+00 -1.630662e+00 -4.270201e+00 89 89 79
-4.166087e+00 -1.436534e+00 -4.014543e+00 33 34 33
-4.383224e+00 -1.109253e+00 -4.034678e+00 41 40 36
-4.383224e+00 -1.109253e+00 -4.034678e+00 41 40 36
-4.473321e+00 -9.826506e-01 -4.018304e+00 27 25 26
-4.473321e+00 -9.826506e-01 -4.018304e+00 27 25 26
-3.811925e+00 -1.975794e+00 -3.882807e+00 23 23 23
-3.612063e-01 -1.565754e+00 3.637719e-01 253 185 41
-3.476157e+02 2.592251e+01 -1.272564e+02 247 248 243
-3.476157e+02 2.592251e+01 -1.272564e+02 247 248 243
-2.240029e+02 -4.090316e+00 -3.215363e+01 255 236 199
-2.356713e+02 -6.035085e+00 -3.114964e+01 189 191 127
-2.718823e+02 -1.159074e+00 -4.998022e+01 58 55 43
-1.097507e+02 2.141472e+01 -1.095686e+02 196 181 162
-1.144902e+02 2.214154e+01 -1.131120e+02 188 178 158
-2.721390e+02 9.044852e+00 -4.807813e+01 201 198 143
-2.194223e+02 -1.876426e+00 -4.297872e+01 63 64 55
-1.396002e+02 2.451925e+01 -1.262813e+02 193 183 150
-2.895894e+02 6.729186e-01 -5.903283e+01 213 199 175
-1.225810e+01 3.396303e-01 3.503184e+00 96 130 163
-8.812412e+00 -1.074825e+01 -2.657714e+01 127 123 129
-2.157434e+02 3.372615e+01 -1.703641e+02 173 165 111
-2.362561e+02 -5.144288e+00 -2.806182e+01 63 55 46
-1.046056e+02 -5.788756e+00 -3.468135e+00 214 197 145
-1.606864e+02 -8.278476e+00 -5.618448e+00 154 164 94
-2.195390e+02 -6.550698e+00 -1.735582e+01 60 61 49
-2.362513e+02 -3.656008e+00 -2.678720e+01 63 52 38
-2.898761e+02 1.653580e+00 -5.916230e+01 208 203 172
-3.796228e+02 2.333854e+01 -1.087962e+02 124 112 79
-2.732623e+02 1.224400e+01 -4.543223e+01 216 210 159
-1.938076e+01 -3.407698e-01 -1.654756e+01 162 173 169
-7.480191e+00 1.561013e+00 -4.575279e-01 136 162 189
-2.187080e+02 -4.870589e+00 -1.633703e+01 189 188 165
-2.365294e+02 -2.266316e+00 -2.733161e+01 35 30 22
-2.184200e+02 -3.336958e+00 -1.601886e+01 208 201 166
-2.230069e+02 -6.477542e-01 -3.097250e+01 253 251 254
-2.724349e+02 2.416985e+00 -4.871261e+01 56 54 20
-3.623146e+02 2.530080e+01 -9.858255e+01 54 46 32
-3.773213e+02 3.198195e+01 -1.069666e+02 248 240 212
-3.612817e+02 3.317845e+01 -9.638396e+01 60 49 34
-3.622034e+02 3.491191e+01 -9.486440e+01 97 89 76
-6.251425e+01 8.014470e+00 -4.809321e+01 142 159 78
-2.362004e+02 -5.072878e+00 -2.957909e+01 195 180 151
-2.364105e+02 -4.346171e+00 -2.803914e+01 42 38 12
-2.186512e+02 -5.017703e+00 -1.592245e+01 46 35 12
-2.363979e+02 -1.677859e+00 -2.670028e+01 237 231 196
-2.366569e+02 -6.577141e-01 -2.695231e+01 34 32 5
-7.742970e+02 1.528127e+00 -1.502228e+02 109 108 106
-3.086952e+02 1.269968e+01 -6.829315e+01 237 223 179
-3.615784e+02 2.595326e+01 -9.878285e+01 225 217 206
-3.772726e+02 4.036050e+01 -1.052097e+02 225 218 191
-2.545510e+00 -2.030896e+00 4.838890e+00 220 225 224
-1.155841e+01 2.072603e+00 -2.280281e+00 50 72 86
-7.849960e+02 6.819048e+01 -4.102272e+02 82 67 76
-2.232963e+00 -1.324839e+00 3.856798e+00 174 174 165
-1.120824e+00 -2.429816e+00 3.342695e+00 212 209 196
-9.708429e+01 -1.540406e+01 2.922832e+01 92 96 67
-1.189357e+00 -2.330992e+00 3.538693e+00 223 172 171
-1.133022e+01 1.768651e-02 4.212335e+00 48 68 100
-2.231101e+02 -4.004103e+00 -3.198496e+01 255 238 216
-4.526399e+02 3.603501e+01 -2.053467e+02 24 32 36
-3.490597e+02 2.592689e+01 -1.263333e+02 253 255 250
4.396606e-01 -3.062197e-02 -1.452771e+01 230 232 223
-1.444068e+02 -6.081906e+00 2.869662e+01 68 67 47
-4.134162e+02 2.214536e+01 -1.314800e+02 33 34 19
-5.857181e+02 1.162598e+01 -7.090325e+00 141 124 141
-5.673833e+02 1.544981e+01 -4.851051e+00 248 253 255
4.598080e+00 -1.488452e+00 2.556766e+00 252 254 254
-1.638261e+02 -8.101882e+00 1.789315e+01 96 93 54
-1.993116e+02 3.594630e+01 -1.668048e+02 217 205 153
-1.999913e+02 3.800948e+00 -3.817809e+00 234 229 198
-2.239989e+01 1.261855e+00 -9.237956e-01 117 140 147
-2.362506e+02 -3.654089e+00 -2.678724e+01 46 37 30
-2.191131e+01 1.463657e+00 -6.564871e-01 60 82 105
-8.588378e-01 -2.318669e+00 2.753135e+00 205 197 189
-1.041257e+00 -2.248270e+00 3.198226e+00 205 190 184
-1.122908e+00 -2.296504e+00 3.385814e+00 201 179 167
-1.657303e+00 -1.185862e+00 3.186910e+00 30 36 36
-1.214446e+00 -2.348836e+00 3.572418e+00 154 89 81
-1.018583e+00 -2.187512e+00 3.167200e+00 196 169 158
-9.355954e-01 -1.993342e+00 3.102690e+00 223 221 219
-1.067970e+00 -2.084023e+00 3.439719e+00 210 203 194
-1.271323e+01 3.263384e+00 -9.487806e-01 94 118 120
-1.002523e+00 -2.353820e+00 3.043183e+00 208 206 196
-1.176938e+00 -2.365975e+00 3.491392e+00 128 77 67
-1.011802e+00 -2.263560e+00 3.123128e+00 131 80 77
-1.079107e+00 -2.083000e+00 3.440801e+00 216 212 205
-1.673938e+00 -1.102441e+00 3.248827e+00 167 166 159
-8.858209e+00 1.568861e+00 -1.627592e-01 65 78 87
-3.547781e+02 2.063950e+01 -1.318590e+02 255 255 255
-7.645160e+01 -1.674334e+01 3.672110e+01 190 187 170
-1.283811e+02 -1.728081e+01 3.831907e+01 47 48 42
-1.283811e+02 -1.728081e+01 3.831907e+01 47 48 42
-3.681984e+02 1.654492e+01 -1.359654e+02 71 69 68
-1.346287e+02 -1.183036e+01 1.889929e+01 156 174 116
-2.023466e+02 -1.393476e+01 7.624641e+01 47 62 54
-1.083894e+02 -1.957270e+01 4.728538e+01 76 75 60
-1.255122e+02 -1.704815e+01 3.949059e+01 52 53 36
-1.260452e+02 -1.611905e+01 3.994004e+01 35 39 23
-3.474255e+02 1.683983e+01 -1.184206e+02 254 255 247
-1.636669e+02 -5.768910e+00 1.805368e+01 235 229 199
-2.357668e+02 6.754098e+00 -2.426259e+01 211 207 163
-1.446809e+02 -3.296831e+00 2.930713e+01 58 60 53
-1.446754e+02 -2.179002e+00 2.918128e+01 54 56 51
-1.352957e+02 -1.491133e+01 2.547810e+01 210 207 152
-1.257686e+02 -1.571924e+01 3.998439e+01 39 42 31
-3.311372e+02 1.839722e+01 -1.207712e+02 209 211 212
-2.367981e+02 8.954653e+00 -2.582798e+01 136 134 110
-7.530333e-01 -2.645919e+00 2.424440e+00 144 144 152
-8.737180e+01 -1.605070e+01 3.576505e+01 41 54 37
-1.253284e+02 -1.651990e+01 3.898116e+01 56 54 44
-1.255710e+02 -1.574101e+01 3.941216e+01 134 127 99
-1.070242e+02 -1.623155e+01 5.031134e+01 79 77 50
-3.555683e+02 1.365170e+01 -1.251130e+02 90 96 97
-1.256851e+02 -1.233510e+01 4.027509e+01 213 211 171
-2.011495e+02 -2.430525e+00 -4.282117e+00 104 98 75
-1.255732e+02 -8.807887e+00 4.050569e+01 87 94 68
-1.254717e+02 -5.015181e+00 4.216776e+01 218 218 189
-3.433592e+02 2.607629e+01 -8.783641e+01 213 208 167
-2.186917e+02 8.293878e+00 -1.364073e+01 216 213 175
-1.252483e+02 -4.368961e+00 4.226337e+01 226 222 194
-1.271575e+02 -2.156577e+00 4.244676e+01 66 73 47
-1.249419e+02 -1.821434e+01 3.970319e+01 144 147 100
-1.335008e+02 -1.267165e+01 1.761030e+01 255 254 254
-1.254925e+02 -1.676072e+01 3.867076e+01 98 93 74
-1.254925e+02 -1.676072e+01 3.867076e+01 98 93 74
-1.332338e+02 -1.107741e+01 1.745036e+01 254 255 252
-1.071070e+02 -1.509850e+01 5.024214e+01 169 176 131
-1.263996e+02 -1.219774e+01 4.077013e+01 98 98 61
-1.271461e+02 -1.241266e+01 4.147151e+01 104 105 97
-3.249316e+02 9.774220e+00 -7.892930e+01 109 102 80
-1.444519e+02 -6.928699e+00 2.865462e+01 83 84 54
-2.358228e+02 7.126297e+00 -2.601604e+01 239 235 190
-1.256097e+02 -5.217124e+00 4.249439e+01 121 119 96
-1.254824e+02 -4.499464e+00 4.195645e+01 103 101 80
-1.259929e+02 -1.805120e+00 4.291322e+01 104 101 80
-2.734512e+02 2.157373e+01 -4.344298e+01 117 115 119
-7.053855e-01 -1.645778e+00 2.464134e+00 249 246 248
-9.330064e+01 -1.550286e+01 3.168605e+01 91 98 99
-1.372694e+02 2.667641e+00 -4.522706e+01 149 150 157
-1.245743e+02 -1.326517e+01 3.932003e+01 47 53 27
-3.440367e+02 1.997454e+01 -1.261169e+02 221 221 221
-1.446021e+02 -7.095132e+00 2.829420e+01 174 171 143
-2.913587e+02 1.196492e+01 -5.657698e+01 172 167 141
-1.249475e+02 -6.539140e+00 4.162060e+01 76 73 59
-1.266580e+02 -2.359438e+00 4.217103e+01 47 51 25
-1.688729e+01 -3.108859e-01 -9.618908e+00 23 24 21
-2.737122e+02 -1.156233e+00 -5.037090e+01 45 46 36
-6.905071e-01 -1.927108e+00 2.592380e+00 199 195 184
-3.729127e+00 -2.071439e+00 -8.135113e+00 180 173 155
-4.001222e+00 -2.200073e+00 -7.768390e+00 178 171 157
-2.562209e+00 -2.005384e+00 4.828382e+00 255 255 255
-1.894286e+01 -1.165596e+00 -1.048818e+01 131 130 120
-8.618742e+00 2.499631e+00 -4.194923e+00 86 91 100
-1.828172e+02 1.025805e-01 8.042096e+00 73 63 51
-1.566445e+00 -1.720416e-01 -1.870488e+00 183 183 167
-1.883836e+01 -7.723703e-01 -1.041873e+01 43 41 36
-1.862767e+01 -4.053050e-01 -1.018558e+01 30 30 25
-1.883076e+01 3.527392e-02 -1.011189e+01 47 47 43
-1.942714e+01 6.663152e-01 -1.020264e+01 21 21 17
-2.367929e+02 3.841061e+00 -2.605006e+01 189 172 137
-2.362777e+02 1.740135e+00 -2.614906e+01 64 60 27
-2.366761e+02 4.704801e+00 -2.612213e+01 63 55 35
-6.671331e+00 -2.163870e-01 -5.379024e+00 78 86 86
1.385314e+01 -1.489664e+00 -7.746736e+00 255 255 255
-6.976605e+00 -3.310207e-01 -5.330960e+00 74 84 83
-1.766435e+01 1.364181e+00 7.200836e-01 134 163 169
-1.494135e+00 -3.055460e+00 4.143022e+00 21 25 24
-1.765987e+00 -1.267409e+00 3.626346e+00 200 208 195
-1.765987e+00 -1.267409e+00 3.626346e+00 200 208 195
-1.291113e+00 -2.707466e-01 4.496057e-01 244 244 244
-9.432434e+01 -1.526455e+01 3.108862e+01 63 68 69
-3.555718e+00 -3.214879e+00 6.172072e+00 188 119 55
-1.515766e+00 4.410568e-01 -1.124592e+00 98 105 120
-7.689190e+01 -1.791261e+01 4.584294e+01 134 142 91
1.637330e+01 -2.382931e-03 -1.090141e+01 148 148 149
5.460228e-01 2.037211e-03 -1.497149e+01 228 229 224
-1.265511e+00 2.258436e-01 -9.975667e-01 203 186 171
-2.311920e+00 -1.618949e+00 -3.056704e+00 81 85 84
-3.729235e+01 -1.379110e+01 3.087535e+01 87 87 90
-3.721681e+01 -1.377194e+01 3.084029e+01 87 87 90
-4.020626e+01 -1.170806e+01 2.287931e+01 114 117 110
-7.382814e+01 -1.830057e+01 4.344309e+01 123 126 107
-3.374662e+02 2.799557e+01 -1.453338e+02 253 252 250
-2.398128e+02 1.900382e+01 -2.273669e+01 171 160 151
1.468737e+01 -8.781398e-01 -9.242368e+00 121 110 75
-5.331612e-01 -5.034761e-01 -1.322787e+01 220 221 221
-3.982462e+00 -1.428085e+00 -3.838195e+00 156 173 188
-2.664804e-01 -1.404855e+00 5.426107e-01 124 93 88
-3.092846e+00 -1.769302e-01 -3.146375e+00 22 25 29
-7.100857e+01 -1.781769e+01 4.275921e+01 140 142 128
-9.895029e+01 -1.537877e+01 2.855221e+01 102 108 95
-9.181786e+00 3.022281e+00 -4.469019e+00 117 126 139
-2.453149e+00 -1.131450e+00 -3.167261e+00 17 21 30
-1.184055e+00 -2.180529e+00 3.602495e+00 248 247 246
-5.381481e+00 -8.061457e-01 -4.297867e+00 101 103 100
-1.302010e+00 -5.359063e-01 5.448456e-01 254 254 254
-6.684460e+01 -1.876936e+01 4.624040e+01 119 123 102
-6.845506e+01 -1.830507e+01 4.459028e+01 124 125 107
-7.320029e+01 -1.775723e+01 4.529554e+01 187 188 122
-8.313766e+01 -1.694514e+01 3.766562e+01 24 26 22
-9.653413e+01 -1.449345e+01 2.645050e+01 130 135 114
-1.170090e+02 -1.453718e+01 2.943442e+01 68 61 51
1.470528e+01 -8.462626e-01 -9.335232e+00 207 203 174
1.451703e+01 -9.053908e-01 -9.096298e+00 138 138 136
-2.262139e+00 -1.155400e+00 -1.117727e+01 107 107 106
-1.094689e+00 -2.101927e+00 3.402712e+00 255 253 254
-3.666539e+00 -9.828981e-01 -3.590825e+00 124 124 121
-1.803930e+01 3.340281e-01 -1.900209e+01 162 169 137
-1.097561e+00 4.413890e-01 -9.991333e-01 144 128 138
-4.187534e+01 -1.127447e+01 2.071485e+01 246 248 236
-4.187534e+01 -1.127447e+01 2.071485e+01 246 248 236
-4.946617e+01 -1.456745e+01 3.316554e+01 125 129 115
-6.069425e+01 -1.559317e+01 3.575483e+01 64 76 80
-6.821325e+01 -1.351931e+01 2.646957e+01 71 81 90
-7.361210e+01 -1.766704e+01 4.498810e+01 141 149 92
-7.687438e+01 -1.719103e+01 4.285091e+01 99 112 75
-9.825696e+01 -1.464239e+01 2.743139e+01 44 45 41
-1.043645e+02 -1.920467e+01 4.587834e+01 198 192 144
-1.154442e+02 -1.440349e+00 -2.863879e+01 202 204 194
-2.198363e+02 6.393063e+00 -1.549076e+01 164 163 142
-2.192044e+02 6.908292e+00 -1.482459e+01 39 41 38
-1.066643e+02 -2.071008e+00 5.163559e+01 45 46 44
1.449993e+01 -1.008738e+00 -8.945855e+00 165 161 161
1.450253e+01 -9.460797e-01 -8.967369e+00 138 138 134
1.319941e+01 -1.941566e+00 -5.802951e+00 113 104 120
1.310314e+01 -1.763786e+00 -6.443864e+00 254 254 244
2.109064e+00 4.773452e-01 -1.649156e+01 120 109 108
2.009981e+00 4.512755e-01 -1.641743e+01 104 97 105
-2.722959e+00 -3.397651e+00 5.243067e+00 99 109 115
-1.715352e+01 7.178866e-01 -2.020112e+01 224 221 215
-4.844821e+00 -4.720975e-01 -3.946410e+00 144 143 139
-1.699275e+00 -1.073711e+00 3.287190e+00 254 252 254
-4.570467e+01 -1.301530e+01 2.670587e+01 249 251 244
-4.711455e+01 -1.367589e+01 2.924121e+01 245 246 233
-6.788721e+01 -1.884463e+01 4.691211e+01 37 34 26
-6.980243e+01 -1.345562e+01 2.574353e+01 74 82 89
-6.980243e+01 -1.345562e+01 2.574353e+01 74 82 89
-7.415620e+01 -1.754404e+01 4.167038e+01 51 45 45
-6.800516e+01 -1.231497e+01 2.192570e+01 125 125 120
-7.705946e+01 -1.725528e+01 4.005412e+01 28 29 24
-7.580887e+01 -1.722302e+01 4.356665e+01 109 116 82
-8.037866e+01 -1.689711e+01 4.124842e+01 76 86 49
-8.698980e+01 -1.555225e+01 3.218520e+01 109 122 107
-9.278506e+01 -1.562563e+01 3.086872e+01 110 119 98
-1.705723e+01 6.199785e-01 1.702295e+00 182 218 231
-1.037183e+02 -1.371285e+01 2.652679e+01 88 76 73
-1.536176e+01 5.001697e+00 -3.751706e+00 212 215 217
-6.486671e+02 -2.022763e+01 -2.160065e+01 149 127 131
1.506458e+01 -7.047066e-01 -9.804574e+00 246 238 181
6.246930e-01 -1.130824e-01 -1.453245e+01 232 230 227
-1.566302e+00 -1.105371e+00 -1.132214e+01 234 236 235
-5.680216e+00 -2.604238e+00 -6.398604e+00 64 79 69
-1.303985e+01 -8.869518e+00 1.548199e+01 114 117 121
-1.310638e+01 -8.857826e+00 1.571029e+01 217 201 173
-9.427009e-01 -2.335912e+00 2.992395e+00 125 130 149
-2.594151e-01 -1.371179e+00 5.497041e-01 74 64 64
-3.424286e+01 1.271166e+00 -2.503222e+01 209 213 203
-3.413483e+01 1.283762e+00 -2.499637e+01 209 213 203
-5.150282e+01 -1.559299e+01 3.630644e+01 204 208 195
-5.150282e+01 -1.559299e+01 3.630644e+01 204 208 195
-6.811234e+01 -1.826927e+01 4.518877e+01 43 42 37
-6.855608e+01 -1.213273e+01 2.129195e+01 143 146 128
-6.855608e+01 -1.213273e+01 2.129195e+01 143 146 128
-7.775150e+01 -1.766222e+01 4.100370e+01 34 34 29
-6.914317e+01 -1.174135e+01 1.998014e+01 122 127 125
-9.216986e+01 -1.608055e+01 3.250888e+01 120 128 108
-4.849650e+02 3.657774e+01 -1.702023e+02 182 177 151
-2.190039e+02 5.568352e+00 -1.434723e+01 199 193 162
-2.640267e+02 4.121491e+01 -2.010397e+02 245 226 170
-3.173273e+02 2.396483e+01 -1.339178e+02 241 241 239
-3.457151e+02 1.899604e+01 -1.241255e+02 255 255 254
-3.230715e+02 4.635517e+01 -2.140531e+02 254 254 253
-4.358674e+02 1.944275e+01 -1.648850e+02 139 132 122
-1.374628e+01 2.317658e+00 2.482532e+00 143 173 185
-3.455471e+02 1.624551e+01 -1.224661e+02 50 50 55
-3.477607e+02 2.791097e+01 -1.324395e+02 255 255 253
-4.104083e+02 2.200919e+01 -1.304560e+02 36 40 23
-1.148679e+00 -2.764257e+00 3.322061e+00 232 243 237
-8.344204e-01 -2.272913e+00 2.731977e+00 125 127 159
-4.430630e+02 2.954290e+01 -1.480462e+02 216 213 175
-7.345901e-01 -2.633944e+00 2.484800e+00 127 128 146
-1.334841e+00 -2.785937e+00 3.756868e+00 251 249 245
-3.393312e+02 6.377894e+00 -8.934973e+01 86 73 51
-4.103116e+02 2.201504e+01 -1.295484e+02 186 176 131
-2.216216e+02 -7.078809e+00 -1.614946e+01 177 164 134
-1.304736e+02 2.716908e+01 -1.221003e+02 237 235 215
-2.190831e+02 4.459120e-01 -1.478411e+01 215 206 150
-3.168380e+02 4.480797e+01 -2.244317e+02 249 247 247
-1.772685e+02 -6.379434e+00 -1.776309e+01 59 61 54
-1.483453e+02 2.539893e+01 -1.310011e+02 239 226 194
-5.849038e+01 -1.040036e+01 1.564550e+01 136 134 121
-2.003447e+02 -8.673103e+00 -6.330288e+00 178 173 147
-1.426853e+02 2.490469e+01 -1.280385e+02 183 176 141
-2.187319e+02 -2.382153e-01 -1.450869e+01 230 221 171
-1.669020e+02 2.891832e+01 -1.437266e+02 173 181 101
-3.171891e+02 4.339956e+01 -2.260763e+02 128 118 121
-2.187889e+02 2.875810e+00 -1.367220e+01 233 229 195
-2.186771e+02 3.380677e+00 -1.344767e+01 227 222 182
-2.186771e+02 3.380677e+00 -1.344767e+01 227 222 182
-2.719068e+02 1.050748e+01 -4.787356e+01 198 190 145
-1.823040e+02 1.624711e+00 7.326691e+00 60 56 37
-2.016730e+02 -9.561576e+00 -5.106526e+00 198 184 153
-2.003469e+02 -7.301189e+00 -5.345642e+00 54 44 21
-3.086785e+02 2.292328e+00 -7.121724e+01 58 50 27
-2.363079e+02 1.509135e-01 -2.679785e+01 40 35 12
-1.823511e+02 -2.195143e+00 6.876837e+00 182 178 133
-2.006848e+02 -3.291319e-01 -3.725172e+00 84 81 39
-2.542924e+02 8.177110e+00 -3.575721e+01 238 227 180
-2.006865e+02 3.172220e+00 -3.427010e+00 73 66 30
-2.006865e+02 3.172220e+00 -3.427010e+00 73 66 30
-5.962912e+01 1.917008e+01 -6.309281e+01 254 232 183
-5.962912e+01 1.917008e+01 -6.309281e+01 254 232 183
-7.691673e-01 -2.728713e+00 2.481380e+00 139 142 148
-3.512275e+02 2.521452e+01 -1.422592e+02 250 249 229
-1.055655e+02 2.361393e+01 -1.084015e+02 247 231 206
-3.336544e+02 2.254786e+01 -1.341259e+02 254 254 237
-3.346170e+02 2.564103e+01 -1.404866e+02 200 193 171
-3.365613e+02 2.625849e+01 -1.400547e+02 239 225 197
-3.329041e+02 3.048957e+01 -1.401526e+02 212 204 171
-1.220616e+00 -2.328502e+00 3.603590e+00 213 190 155
-6.026606e+01 1.479615e+01 -6.507481e+01 227 199 141
-1.074994e+02 2.400862e+01 -1.094929e+02 178 162 140
-1.050166e+02 2.463079e+01 -1.076599e+02 216 199 169
-1.074354e+00 -2.484821e+00 3.155656e+00 170 171 164
-2.423240e+00 -1.874013e+00 4.265739e+00 177 177 174
-8.309533e+00 1.595181e+00 -1.014424e+00 35 41 52
-1.287554e+00 -2.440878e+00 3.727417e+00 148 59 31
-1.236727e+00 -2.408140e+00 3.610122e+00 143 70 55
-1.209215e+00 -2.389100e+00 3.556605e+00 138 69 59
-1.195735e+00 -2.381354e+00 3.521008e+00 136 70 55
-1.195735e+00 -2.381354e+00 3.521008e+00 136 70 55
-1.105507e+00 -2.269324e+00 3.387312e+00 217 199 158
-1.049036e+02 2.152531e+01 -1.087189e+02 232 223 163
-4.383367e+02 3.396083e+01 -2.007823e+02 104 101 84
-9.904966e-01 -2.310217e+00 3.073813e+00 213 202 183
-1.271582e+00 -2.462511e+00 3.596819e+00 227 216 197
-3.218676e+02 4.218420e+01 -2.124061e+02 238 240 229
-6.044845e+01 1.453510e+01 -6.509143e+01 219 180 130
-1.022788e+00 -2.850821e+00 3.082357e+00 226 221 209
-9.254601e-01 -2.691061e+00 2.813254e+00 178 193 186
-1.335284e+00 -2.683997e+00 3.783224e+00 253 245 228
-9.951434e-01 -2.186051e+00 3.110419e+00 221 185 162
-7.452500e-01 -2.411054e+00 2.490105e+00 203 199 191
-1.850788e+02 -1.040426e+01 4.543898e+00 47 50 40
-7.223788e+00 2.141855e+00 -3.273868e+00 149 192 233
-1.741496e+02 -6.550436e+00 -1.598617e+01 63 65 63
-1.090735e+01 -1.085336e-01 4.315180e+00 180 201 218
-1.450595e+02 -1.254133e+01 2.739229e+01 119 114 83
-1.813524e+02 -1.437125e+00 6.493823e+00 178 174 132
-1.445252e+02 -3.195618e+00 3.012901e+01 78 77 51
-8.365954e+00 2.438652e+00 -4.310385e+00 66 75 85
-2.003853e+02 -7.299275e+00 -5.343774e+00 66 60 39
-1.448383e+02 -8.698448e+00 2.875648e+01 62 57 38
-2.363945e+02 -1.683677e+00 -2.670301e+01 242 235 202
-1.447018e+02 -7.910063e+00 2.845613e+01 221 213 178
-1.451022e+02 -5.574949e+00 2.974382e+01 231 220 191
-2.730107e+02 7.397920e+00 -4.859423e+01 216 208 164
-1.452747e+02 -2.093672e+00 2.966325e+01 184 193 146
-1.821837e+02 6.193785e+00 7.900576e+00 57 56 23
-1.453346e+02 2.504812e+00 3.100694e+01 207 210 165
-9.121128e+01 -5.251890e+00 -7.898193e+00 42 40 22
-2.225643e+02 -3.969229e+00 -3.185094e+01 254 202 173
-2.093000e+02 -3.024374e+00 -3.490430e+01 58 73 40
-2.270917e+02 -9.779173e-01 -4.757524e+01 57 58 56
-2.723686e+02 2.281525e-01 -4.894425e+01 82 73 58
-1.246592e+00 -2.860890e+00 3.480876e+00 165 177 183
-9.256028e+01 -4.715673e+00 -6.422411e+00 73 65 42
-1.855310e+02 -5.365887e+00 -2.004527e+01 103 107 60
-2.411582e+02 -5.143340e-02 -5.469912e+01 58 63 43
-2.350932e+02 -5.774732e+00 -2.691745e+01 175 151 120
-2.361048e+02 -4.353550e+00 -2.760259e+01 189 168 138
-2.365316e+02 -4.721414e+00 -2.650025e+01 75 71 39
-1.120342e+00 -2.729747e+00 3.269466e+00 63 78 94
-6.872437e-01 -2.009823e+00 2.492551e+00 210 202 194
-9.168002e+01 -4.996948e+00 -5.197773e+00 74 72 34
-8.587922e-01 -1.955649e+00 2.946821e+00 221 220 215
-1.180168e+01 4.282283e-01 2.917269e+00 35 39 39
-7.760403e-01 -2.701406e+00 2.557421e+00 218 217 211
-7.760403e-01 -2.701406e+00 2.557421e+00 218 217 211
-1.121904e+00 -2.902987e+00 3.298383e+00 223 221 211
-1.181241e+00 -2.940444e+00 3.420227e+00 227 227 222
-7.578939e-01 -2.543019e+00 2.453227e+00 207 204 201
-9.417426e-01 -2.508410e+00 2.854435e+00 174 173 174
-1.167867e+00 -2.741049e+00 3.316878e+00 171 186 190
-1.187902e+00 -2.407881e+00 3.433384e+00 212 200 187
-1.187902e+00 -2.407881e+00 3.433384e+00 212 200 187
-1.180153e+00 -2.843593e+00 3.380788e+00 165 177 180
-1.009571e+00 -2.462912e+00 3.036126e+00 188 182 169
-9.358768e-01 -2.849710e+00 2.786590e+00 212 210 197
-1.315626e+00 -2.925364e+00 3.662611e+00 177 190 188
-7.806912e-01 -2.707542e+00 2.560250e+00 217 216 208
-8.110958e-01 -2.711481e+00 2.603629e+00 39 39 43
-1.005424e+00 -2.195546e+00 3.140830e+00 135 69 66
-1.183590e+00 -2.940502e+00 3.421513e+00 230 230 225
-1.141914e+00 -2.302524e+00 3.477665e+00 236 193 179
-1.141914e+00 -2.302524e+00 3.477665e+00 236 193 179
-1.673428e+00 -1.302093e+00 3.177069e+00 27 29 28
-1.283616e+01 4.785253e-01 3.778486e+00 107 122 143
-1.170989e+02 -1.715628e+01 3.502619e+01 205 204 140
-1.635052e+02 -1.370567e+01 1.684406e+01 166 160 134
-5.700034e+02 -1.057958e+01 -6.381952e+00 150 156 136
-1.586622e+00 -1.165666e+00 3.912035e+00 43 44 66
-2.003734e+02 -6.404573e+00 -5.330893e+00 113 111 92
-1.674928e+01 8.822322e-01 -2.063346e+01 216 218 209
-1.452094e+02 -1.524715e+01 2.573645e+01 150 155 104
-1.446392e+02 -9.365817e+00 2.829712e+01 215 212 174
-5.789041e+02 -8.963502e-01 -2.208945e+00 166 169 143
-5.748046e+01 -1.020804e+01 1.461191e+01 254 253 241
-1.068383e+02 -1.707447e+01 4.978145e+01 119 125 82
-1.451523e+02 -1.051335e+01 2.864554e+01 111 107 77
-3.531068e+02 1.662525e+01 -1.253711e+02 32 32 39
-1.641024e+02 -5.093213e+00 1.808036e+01 73 68 50
-2.001944e+02 -9.952026e-01 -4.363161e+00 91 88 60
-2.360357e+02 9.190687e+00 -2.353433e+01 80 69 50
-1.452347e+02 -1.748355e+00 2.951859e+01 41 43 25
-1.352161e+02 -1.254713e+01 1.684129e+01 192 187 172
-3.100886e+02 7.487755e+00 -9.444281e+01 199 209 137
-3.815031e+02 1.060885e+01 -1.140347e+02 70 66 51
-2.373280e+02 8.212602e-01 -2.607512e+01 236 231 210
-1.450947e+02 -7.870676e+00 2.931915e+01 97 94 58
-1.450423e+02 -3.604920e+00 2.879228e+01 221 215 186
-1.450423e+02 -3.604920e+00 2.879228e+01 221 215 186
-1.444173e+02 -3.502636e+00 2.991705e+01 84 76 63
-3.766664e+02 3.629812e+01 -1.060872e+02 198 198 176
-1.653912e+02 -1.293315e+01 1.586265e+01 51 47 35
-3.153575e+02 5.908967e-01 -7.174487e+01 199 192 133
-2.920456e+02 7.720167e-01 -6.087410e+01 35 37 29
-2.734280e+02 -1.145278e+00 -5.032190e+01 45 46 36
-2.735887e+00 -2.484041e-01 -2.998175e+00 150 147 124
-1.206628e+00 -2.448695e+00 3.505825e+00 208 198 174
-1.643151e+02 -1.311333e+01 1.493436e+01 55 54 49
-2.371600e+02 -1.690671e+00 -2.722224e+01 38 38 27
-2.217323e+02 -1.984486e+00 -4.344351e+01 54 57 40
-2.916761e+02 7.072137e+00 -5.808899e+01 155 143 96
-2.566979e+02 7.994711e+00 -3.509167e+01 222 207 147
-2.182756e+02 4.506342e+00 -1.334031e+01 55 50 32
-2.001358e+02 -1.547553e-01 -4.038188e+00 181 162 111
-1.825854e+02 -3.101087e-01 8.263761e+00 189 173 115
-1.362888e+02 -1.056649e+01 7.953832e+00 151 145 86
-1.832480e+02 -7.083455e+00 5.949973e+00 51 50 32
-1.824399e+02 -5.172291e+00 6.194021e+00 63 57 31
-2.186994e+02 1.465007e+00 -1.404410e+01 211 187 125
-1.645319e+00 -1.090211e+00 3.108035e+00 76 72 60
-1.656605e+00 -1.092080e+00 3.109456e+00 76 72 60
-1.074881e+02 -1.934000e+01 4.859993e+01 54 50 48
-1.066882e+02 -1.982353e+01 5.017318e+01 67 62 47
-1.067876e+02 -1.713481e+01 5.002289e+01 176 173 126
-1.158357e+02 -2.164645e+01 5.796882e+01 195 198 185
-1.066314e+02 -1.787692e+01 4.759606e+01 186 187 178
-4.159418e-01 -5.662340e-01 -1.259872e+01 233 236 238
-1.062945e+02 -1.987873e+01 4.719439e+01 175 171 119
-1.068519e+02 -1.948675e+01 5.034000e+01 51 52 44
-1.067112e+02 -1.906309e+01 4.955410e+01 114 109 79
-1.067579e+02 -1.906310e+01 4.955933e+01 114 109 79
-1.077547e+02 -7.107069e+00 5.222030e+01 187 184 143
9.230318e+00 -3.656895e+00 -7.453072e-02 114 119 83
-1.075134e+02 -7.230600e+00 5.139268e+01 143 144 119
-1.077746e+02 -2.056895e+01 5.074495e+01 54 56 44
-1.157059e+02 -2.043774e+01 5.659605e+01 77 94 100
-2.377892e+02 3.537684e+00 -2.691040e+01 37 33 34
-1.274745e+02 -5.463077e+00 4.088084e+01 32 33 30
1.740527e+01 -2.419764e+00 -3.240166e+00 53 35 26
-6.643338e+01 -1.753131e+01 4.051599e+01 110 113 107
-1.039573e+02 -2.011658e+01 4.897958e+01 191 188 143
-1.071197e+02 -1.980890e+01 5.072101e+01 43 46 26
-2.709500e+02 -1.379493e+00 -4.965447e+01 64 56 53
-3.054521e+02 1.737407e+00 -6.845898e+01 185 194 152
-3.426890e+02 6.427407e+00 -9.250028e+01 75 72 70
-2.720375e+02 1.181320e+00 -4.879732e+01 58 58 52
-1.272409e+02 -2.488012e+00 4.272370e+01 208 208 174
-2.736985e+02 1.986903e+01 -4.392786e+01 119 118 118
5.553077e-01 1.163308e-02 -1.474282e+01 232 231 226
-1.489363e+00 -2.683378e+00 4.128531e+00 25 33 44
-1.672309e+01 9.847922e-01 -2.109481e+01 190 191 182
-1.276219e+02 -1.654477e+01 4.103820e+01 79 88 94
-1.265519e+02 -1.602266e+01 4.065815e+01 172 174 157
-2.945474e+02 5.761717e+00 -8.715573e+01 81 83 81
-2.945474e+02 5.761717e+00 -8.715573e+01 81 83 81
-7.406039e+01 -1.765883e+01 4.145824e+01 178 180 168
-3.427988e+02 1.941972e+01 -1.414388e+02 251 254 253
-2.548039e+02 -8.462444e-01 -3.809860e+01 212 203 161
-1.445787e+02 -6.217719e+00 2.945979e+01 225 221 190
-2.725542e+02 9.087734e+00 -4.824272e+01 221 222 174
-1.265940e+02 -4.447416e+00 4.199700e+01 223 221 197
-4.122656e+00 4.509110e-01 -3.892410e+00 35 39 40
-4.400474e+00 -1.236507e+00 -4.096908e+00 113 115 121
-1.474102e+00 -3.038454e+00 4.136819e+00 19 19 21
-7.125765e-01 -2.543698e+00 2.453920e+00 234 246 249
-3.040408e+00 -1.727645e+00 4.773055e+00 158 173 178
-3.040408e+00 -1.727645e+00 4.773055e+00 158 173 178
-9.710599e-01 1.477054e-01 -5.850745e-01 243 245 245
-1.783379e+01 1.630178e-01 -9.751490e+00 25 31 28
3.634046e+00 1.460157e+00 -1.965959e+01 254 254 253
2.402432e+00 9.237449e-01 -1.820935e+01 248 248 244
-7.069812e-02 -1.462451e+00 9.194207e-02 232 157 58
-4.221157e+00 -1.055100e+00 -3.824014e+00 123 140 162
-9.320219e+00 2.344441e+00 -4.527638e+00 59 56 64
9.656943e+00 -3.660403e+00 -6.331818e-02 222 221 224
1.045641e+01 -9.226060e-02 -1.260829e+01 43 43 45
1.045641e+01 -9.226060e-02 -1.260829e+01 43 43 45
9.202542e+00 -3.575997e+00 -4.927945e-01 112 120 107
-4.117833e+00 -2.002539e+00 -4.004101e+00 183 196 209
-4.117833e+00 -2.002539e+00 -4.004101e+00 183 196 209
-7.157492e+00 -8.921647e-01 -5.239990e+00 78 87 86
-1.698742e+01 -5.114541e-02 -9.436148e+00 82 91 95
-7.547735e+01 -1.584596e+01 3.498098e+01 99 99 99
-9.313311e+00 2.410778e+00 -4.854879e+00 117 159 194
-9.187030e+00 1.127452e+00 1.105085e+00 33 44 61
-9.021026e+01 -1.527575e+01 3.404424e+01 193 189 129
-3.454415e+02 2.275465e+01 -1.417242e+02 73 73 90
1.685867e+01 -2.320132e+00 -3.770142e+00 42 43 37
1.678648e+01 -2.288168e+00 -3.852997e+00 44 45 51
1.148872e+01 -2.806017e+00 -2.967466e+00 242 242 242
2.132007e+00 9.350066e-01 -1.779988e+01 146 151 151
-5.448917e-01 -5.325511e-01 -1.302400e+01 236 238 237
-5.082742e+00 -1.427024e+00 -4.381558e+00 108 113 117
-4.837406e+00 -6.658232e-01 -3.965777e+00 134 142 148
-4.837406e+00 -6.658232e-01 -3.965777e+00 134 142 148
-7.748696e-01 -5.832685e-01 4.235806e-01 189 191 192
-1.275241e+00 5.053197e-02 -1.321526e+00 194 125 72
-1.309815e+01 -3.549386e-01 -7.796093e+00 82 90 91
-5.669520e+01 -1.781560e+01 4.447332e+01 132 148 154
-5.669520e+01 -1.781560e+01 4.447332e+01 132 148 154
-1.035510e+02 -1.973180e+01 4.751965e+01 188 187 139
-4.160394e+02 3.898135e+01 -1.286442e+02 93 82 74
1.720375e+01 -2.348856e+00 -3.482427e+00 40 31 29
1.720375e+01 -2.348856e+00 -3.482427e+00 40 31 29
1.711147e+01 -2.342532e+00 -3.561931e+00 38 31 34
1.387182e+01 -1.433214e+00 -7.443421e+00 148 133 119
-1.470249e+00 -1.006490e+00 -1.173952e+01 200 197 194
-4.747084e+00 -2.201775e+00 -4.433533e+00 21 19 25
-4.108092e+00 -1.713691e+00 -3.956658e+00 49 48 55
-4.108092e+00 -1.713691e+00 -3.956658e+00 49 48 55
-4.909998e+00 -1.783520e+00 -4.399167e+00 102 106 109
-1.909604e+01 -1.189340e+00 -1.049790e+01 156 161 157
-5.644082e+01 -1.774152e+01 4.378216e+01 132 141 141
-6.919270e+01 -1.886136e+01 4.601906e+01 123 125 101
-1.037743e+02 -1.879372e+01 4.444026e+01 193 189 143
-9.967220e+01 -2.409416e-01 -2.808335e+01 132 133 141
-1.034824e+02 -1.743385e+01 4.936344e+01 79 98 104
-3.280802e+02 1.383492e+01 -7.983679e+01 62 68 57
1.732978e+01 -2.408091e+00 -3.303046e+00 63 45 46
-1.269132e+00 -3.005586e+00 3.474524e+00 234 238 238
-3.035671e+00 -3.806123e+00 5.340522e+00 162 181 192
-2.715758e+00 -3.488862e+00 5.250455e+00 246 251 251
-4.036308e+00 -1.279416e+00 -3.827603e+00 57 56 57
-4.036308e+00 -1.279416e+00 -3.827603e+00 57 56 57
-1.252516e+00 -2.351952e+00 3.552252e+00 224 189 195
-1.683894e+01 9.037736e-01 -2.082737e+01 210 212 202
-1.450048e+00 -2.784209e-01 -2.032331e+00 182 193 188
-4.851936e+00 -4.627494e-01 -3.828675e+00 25 22 24
-1.802758e+00 -1.048803e+00 3.074756e+00 58 61 74
-1.948816e+01 6.438003e-01 -1.021002e+01 22 17 23
-1.927086e+01 7.391950e-01 -1.002465e+01 106 108 106
-1.252080e+01 2.215333e+00 -6.677182e+00 165 175 174
-3.975757e+02 2.591699e+01 -1.195513e+02 210 207 175
-1.070567e+02 -5.513090e+00 5.086723e+01 116 109 93
1.731239e+01 -2.361452e+00 -3.327048e+00 234 204 164
-3.957934e+00 -2.246527e+00 -7.663330e+00 210 211 205
-3.957934e+00 -2.246527e+00 -7.663330e+00 210 211 205
-4.556279e+00 -1.622615e+00 -4.260721e+00 104 106 107
-1.342428e+00 -2.277845e+00 3.872384e+00 239 243 237
-2.662868e+00 -1.795701e-01 -3.029901e+00 165 171 160
-1.803532e+00 -1.320706e+00 3.514997e+00 36 42 69
-1.926327e+01 -1.178526e+00 -1.065609e+01 23 29 44
-7.580223e+00 2.459423e-01 -5.051112e+00 119 130 134
-7.403144e+00 3.630314e-01 -5.202617e+00 121 130 134
-4.691512e+01 -1.352868e+01 2.861732e+01 244 246 236
-4.691512e+01 -1.352868e+01 2.861732e+01 244 246 236
-1.896229e+01 3.671351e-01 -9.981022e+00 10 8 22
-5.541070e+01 -1.685094e+01 4.039209e+01 93 97 108
-7.791361e+01 -1.728027e+01 3.991338e+01 26 28 24
-3.358183e+02 1.905179e+01 -1.215412e+02 252 254 254
-3.089109e+02 1.325085e+01 -6.867310e+01 86 82 76
-1.071574e+02 -7.211106e+00 5.107334e+01 100 98 82
-1.076246e+02 -5.814566e+00 5.086989e+01 45 46 38
-2.581406e+02 1.161949e+01 -3.477006e+01 71 65 53
-1.068539e+02 -2.090334e+00 5.171608e+01 48 46 52
1.748665e+01 -2.441219e+00 -3.064843e+00 228 183 155
1.733549e-02 -3.459165e-01 -1.394173e+01 210 210 204
-1.285222e+00 -2.954162e+00 3.577334e+00 110 115 126
-3.762385e+00 -1.098946e+00 -3.592265e+00 25 26 26
-9.188868e-01 -3.887288e-02 -8.969290e-01 243 235 233
-2.015161e+01 -7.432193e-01 -1.089752e+01 146 145 144
-3.870269e+01 -1.319003e+01 2.818396e+01 182 183 111
-7.554431e+01 -1.746624e+01 4.423342e+01 90 101 54
-9.160802e+00 1.026691e+00 1.179794e+00 48 70 115
-9.238535e+01 -1.535093e+01 3.242725e+01 45 49 51
-3.103119e+02 2.934293e+00 -7.036667e+01 181 181 153
-3.429217e+02 1.224390e+01 -1.155871e+02 167 164 126
-2.231811e+02 1.465832e-01 -3.074202e+01 216 196 175
-2.374296e+02 8.329581e+00 -2.358347e+01 203 202 174
-9.163743e-01 -9.908268e-01 1.457024e+00 196 205 208
-1.668717e+00 -1.356975e+00 3.232577e+00 175 178 158
-1.743280e+00 -1.117480e+00 3.364434e+00 18 17 17
-1.691448e+00 -1.232953e+00 3.251008e+00 10 11 11
-8.831749e+00 6.858957e-01 2.423073e+00 40 46 59
-2.199873e+02 -7.062174e+00 -1.773376e+01 66 63 48
-1.104057e+00 -2.204279e+00 3.515481e+00 215 213 195
-1.302107e+00 -2.253636e+00 3.918263e+00 203 195 167
-2.004826e+02 -7.956657e+00 -5.918852e+00 123 109 80
-2.009665e+02 -6.250453e+00 -5.421309e+00 107 96 62
-1.611910e+00 -1.110532e+00 2.530685e+00 21 24 30
-1.722713e+00 -1.088819e+00 3.310822e+00 194 189 180
-5.062705e+00 -2.344564e+00 -7.065690e+00 61 55 44
-9.134382e+01 -9.554653e+00 8.122952e+00 59 58 30
-1.502992e+02 -9.021458e+00 -2.129092e+00 44 41 39
-1.999391e+02 -8.653274e+00 -6.301103e+00 172 153 120
-2.184074e+02 -6.291541e+00 -1.565241e+01 143 123 90
-1.269680e+00 -1.987212e+00 3.567078e+00 184 183 179
-1.711500e+00 -1.076609e+00 3.277277e+00 203 195 175
-1.750333e+00 -1.089253e+00 3.330297e+00 21 23 28
-3.343165e+01 1.659986e+00 -2.611290e+01 182 178 169
-2.006560e+02 -8.706879e+00 -6.922644e+00 44 43 15
-2.206366e+02 -2.721933e+00 -3.063064e+01 104 107 85
-2.001651e+02 5.162858e+00 -3.402019e+00 37 35 23
-1.310681e+00 -2.454894e+00 3.794988e+00 121 60 46
-1.310681e+00 -2.454894e+00 3.794988e+00 121 60 46
-1.193609e+00 -2.377262e+00 3.524399e+00 115 52 48
-1.298624e+00 -2.408730e+00 3.773568e+00 206 164 149
-4.056868e+00 -2.134735e+00 -7.892251e+00 158 148 131
-4.704161e+01 -8.510621e+00 5.561169e+00 69 60 55
-1.365007e+02 -1.080623e+01 9.518967e+00 158 150 84
