ply
format ascii 1.0
element vertex 917
property float x
property float y
property float z
property uchar diffuse_red
property uchar diffuse_green
property uchar diffuse_blue
end_header
-8.032944e+01 1.953790e+01 -9.415890e+01 253 253 237
-2.925887e+01 1.693228e+01 -6.818550e+01 222 240 132
-4.347750e+01 1.790740e+01 -7.569038e+01 239 238 175
-4.347750e+01 1.790740e+01 -7.569038e+01 239 238 175
-3.892013e+01 1.860657e+01 -7.693999e+01 255 237 180
-5.256220e+01 2.032321e+01 -8.133925e+01 255 253 183
-7.356779e+01 2.253041e+01 -8.961017e+01 105 99 80
-7.356779e+01 2.253041e+01 -8.961017e+01 105 99 80
-6.487651e+01 2.232128e+01 -8.532085e+01 214 197 153
-7.223068e+01 2.282935e+01 -8.825168e+01 83 74 47
-7.282925e+01 2.299215e+01 -8.900583e+01 83 74 47
-1.067988e+02 2.763735e+01 -1.080613e+02 223 188 158
-7.764425e+01 2.854698e+01 -9.118190e+01 255 204 162
-8.135821e+01 2.946894e+01 -9.288081e+01 210 136 112
-8.029774e+01 3.032830e+01 -9.208248e+01 254 203 167
-2.581753e-02 -2.235708e+00 2.435339e+00 133 133 161
-4.331267e-02 -2.239160e+00 2.416374e+00 133 133 161
2.264850e-02 -2.116190e+00 2.212511e+00 254 255 250
-2.056883e+00 -2.636782e+00 5.371063e+00 255 189 54
-1.855901e-01 -1.962113e+00 2.843643e+00 254 253 247
-1.859369e-01 -1.963092e+00 2.842916e+00 254 253 247
-2.741095e-01 -1.963842e+00 3.022493e+00 141 137 169
-8.676421e-03 -1.855494e+00 2.403365e+00 255 255 255
-3.382985e-01 -1.864714e+00 3.224423e+00 251 215 217
2.173994e-01 -1.673368e+00 1.947118e+00 145 148 162
2.173994e-01 -1.673368e+00 1.947118e+00 145 148 162
1.596191e-01 -2.969115e-01 -1.313245e+01 112 106 105
3.055809e-02 -1.516745e+00 2.497868e+00 121 119 141
1.281107e-01 -1.394959e+00 2.238512e+00 135 133 139
1.304571e-01 -1.395157e+00 2.240733e+00 135 133 139
-8.325010e-01 -6.721634e-01 2.861441e+00 31 31 47
-1.358284e+01 2.768180e+00 -2.640635e+01 229 231 216
-1.191313e+01 3.955845e+00 -3.068383e+01 157 146 152
-1.938466e+01 8.288916e+00 -4.754852e+01 175 176 144
-8.323628e+00 1.921211e+00 2.237514e-01 67 80 96
-3.186578e+01 1.234550e+01 -6.561976e+01 187 179 131
-5.131686e+01 1.068223e+01 -6.123481e+01 212 200 172
-4.728051e+01 1.239570e+01 -6.748040e+01 245 233 199
-3.148810e+01 1.329692e+01 -6.609768e+01 212 209 149
-5.185579e+01 1.545598e+01 -7.365399e+01 156 115 81
-5.053496e+01 1.567805e+01 -7.377833e+01 239 229 167
-7.581123e+01 1.832836e+01 -9.195388e+01 138 139 101
-7.581123e+01 1.832836e+01 -9.195388e+01 138 139 101
-5.328717e+01 1.571334e+01 -7.347154e+01 125 114 74
-5.328717e+01 1.571334e+01 -7.347154e+01 125 114 74
-4.962893e+01 1.603674e+01 -7.388465e+01 221 222 150
-4.962893e+01 1.603674e+01 -7.388465e+01 221 222 150
-3.180399e+01 1.607468e+01 -6.899875e+01 214 206 118
-2.896469e+01 1.600188e+01 -6.754992e+01 98 100 49
-7.785848e+01 1.904662e+01 -9.302504e+01 218 214 202
-7.785848e+01 1.904662e+01 -9.302504e+01 218 214 202
-4.175640e+01 1.748019e+01 -7.618075e+01 231 224 141
-3.936109e+01 1.818413e+01 -7.681747e+01 253 238 191
-4.293181e+01 1.796070e+01 -7.589997e+01 77 77 38
-4.589572e+01 1.808875e+01 -7.626325e+01 251 254 203
-6.873737e+01 1.973298e+01 -8.752733e+01 211 203 185
-4.500031e+01 1.894855e+01 -7.708291e+01 221 227 155
-3.951465e+01 1.982316e+01 -7.738865e+01 207 221 145
-3.951465e+01 1.982316e+01 -7.738865e+01 207 221 145
-5.264688e+01 2.102619e+01 -8.198497e+01 146 157 80
-6.144964e+01 2.263123e+01 -8.609363e+01 90 85 81
-5.148753e+01 2.326685e+01 -8.504100e+01 166 169 91
-5.051717e+01 2.439876e+01 -8.821145e+01 217 199 142
-5.979800e+01 2.587998e+01 -8.547520e+01 255 249 227
-5.975830e+01 2.700499e+01 -8.507996e+01 255 251 224
-7.966567e+01 2.998272e+01 -9.176668e+01 145 92 77
-7.966567e+01 2.998272e+01 -9.176668e+01 145 92 77
-5.069093e+00 -3.785992e+00 -5.815732e-01 129 139 132
-9.313847e-02 -2.384872e+00 2.513087e+00 252 252 247
5.811775e-02 -2.336735e+00 2.208585e+00 62 61 62
-2.914068e-01 -2.403384e+00 3.090830e+00 137 140 157
-1.469867e-02 -2.277776e+00 2.373585e+00 253 254 254
5.613990e-02 -2.226171e+00 2.199671e+00 128 125 142
5.538543e-02 -2.224245e+00 2.198928e+00 128 125 142
-2.967116e-01 -2.326356e+00 2.926450e+00 250 253 249
-2.967116e-01 -2.326356e+00 2.926450e+00 250 253 249
-2.316264e-01 -2.301900e+00 2.827740e+00 239 246 243
-2.358190e-01 -2.302427e+00 2.826258e+00 239 246 243
-4.147725e-01 -2.354261e+00 3.259301e+00 125 132 147
4.312773e-02 -2.217541e+00 2.258819e+00 252 252 252
-2.216465e-02 -2.226125e+00 2.367418e+00 127 128 144
2.048749e-01 -2.146180e+00 1.909450e+00 254 254 254
2.048749e-01 -2.146180e+00 1.909450e+00 254 254 254
-2.312086e-01 -2.240411e+00 2.823052e+00 124 130 153
-2.334882e-01 -2.240526e+00 2.821734e+00 124 130 153
-2.096754e-01 -2.220560e+00 2.755907e+00 247 255 250
1.259780e-01 -2.084277e+00 1.997026e+00 251 253 247
1.265378e-01 -2.084730e+00 1.997530e+00 251 253 247
7.469612e-02 -2.058258e+00 2.116667e+00 255 253 250
-4.046626e-01 -2.077852e+00 3.334341e+00 139 139 151
-4.091926e-01 -2.076903e+00 3.331531e+00 139 139 151
-3.697232e-01 -2.070334e+00 3.275116e+00 255 255 252
-3.753449e-01 -2.079873e+00 3.268715e+00 255 255 252
-3.093747e-01 -1.977447e+00 3.130263e+00 133 132 162
1.387692e-02 -1.809742e+00 2.358234e+00 142 141 152
6.563049e-03 -1.809869e+00 2.354658e+00 142 141 152
6.914188e-02 -1.744428e+00 2.270350e+00 144 143 169
6.289569e-02 -1.745743e+00 2.267893e+00 144 143 169
1.630135e-01 -1.700289e+00 2.057598e+00 143 142 158
1.630746e-01 -1.700079e+00 2.056661e+00 143 142 158
-2.364407e+00 -1.185806e+00 -1.013179e+01 108 101 99
-8.053178e-02 -1.697156e+00 2.645825e+00 255 252 253
7.662643e-01 9.589084e-02 -1.462078e+01 249 247 240
1.108724e+00 2.711366e-01 -1.529984e+01 249 249 244
-5.134755e+01 1.099375e+01 -6.135662e+01 64 55 44
-3.327021e+01 1.475606e+01 -6.946191e+01 204 210 127
-3.625576e+01 1.487036e+01 -7.083809e+01 255 254 218
-3.192484e+01 1.522051e+01 -6.941699e+01 85 90 51
-3.038741e+01 1.513190e+01 -6.844661e+01 225 229 148
-4.741168e+01 1.550670e+01 -7.358210e+01 255 246 190
-2.851454e+01 1.546737e+01 -6.768666e+01 77 75 34
-5.126344e+01 1.605675e+01 -7.385700e+01 221 232 162
-5.286782e+01 1.646193e+01 -7.377198e+01 254 220 157
-4.892075e+01 1.675314e+01 -7.428425e+01 255 252 178
-4.808132e+01 1.700549e+01 -7.457231e+01 226 230 163
-2.803577e+01 1.643676e+01 -6.723275e+01 208 233 121
-4.898245e+01 1.750593e+01 -7.521562e+01 151 144 86
-3.999569e+01 1.853753e+01 -7.710777e+01 133 112 68
-3.960175e+01 1.883665e+01 -7.719361e+01 236 236 150
-3.958538e+01 1.882629e+01 -7.716207e+01 236 236 150
-2.933921e+01 1.772447e+01 -6.937824e+01 162 147 88
-3.914899e+01 1.946647e+01 -7.847728e+01 150 129 79
-5.142034e+01 2.032653e+01 -8.136909e+01 135 132 71
-4.050834e+01 1.980545e+01 -7.731329e+01 117 107 72
-4.452415e+01 1.964372e+01 -7.729325e+01 131 134 79
-3.945937e+01 2.007206e+01 -7.744081e+01 100 100 43
-5.047077e+01 2.107770e+01 -8.243982e+01 228 240 164
-5.599262e+01 2.192369e+01 -8.448708e+01 200 202 159
-5.606675e+01 2.196280e+01 -8.458518e+01 200 202 159
-4.533618e+01 2.183267e+01 -8.222395e+01 250 248 198
-5.984286e+01 2.235133e+01 -6.247475e+01 253 244 197
-8.194092e+01 3.031485e+01 -9.289276e+01 253 182 157
-8.089795e+01 3.062897e+01 -9.232300e+01 183 112 95
-6.080080e+01 2.266895e+01 -8.356672e+01 131 127 118
-5.155858e+01 2.735318e+01 -9.885666e+01 183 170 105
-5.216791e+01 2.717567e+01 -9.788347e+01 118 104 63
-5.930549e+01 2.270997e+01 -8.626500e+01 77 61 45
-5.997713e+01 2.202473e+01 -6.302246e+01 126 112 53
-1.722985e+01 3.474157e+00 7.627785e-01 109 136 121
-5.756680e+01 2.570555e+01 -8.889083e+01 242 200 147
-5.714605e+01 2.602303e+01 -8.950985e+01 250 207 160
-5.715363e+01 2.643608e+01 -8.941420e+01 252 202 153
-4.705171e+01 3.231671e+01 -1.061337e+02 240 215 181
-7.026047e+01 2.799483e+01 -8.662538e+01 203 128 96
-6.081358e+01 2.220695e+01 -6.307155e+01 189 165 129
-6.944768e+01 2.802238e+01 -8.600401e+01 146 93 69
-6.944768e+01 2.802238e+01 -8.600401e+01 146 93 69
-6.047348e+01 2.221302e+01 -6.285562e+01 91 86 49
-5.866578e+01 2.308608e+01 -8.696306e+01 214 191 137
-6.954038e+01 2.789010e+01 -8.625299e+01 229 157 119
-6.984008e+01 2.822456e+01 -8.628574e+01 219 145 107
-2.332752e+01 -2.962407e+00 -2.521670e+00 243 232 219
-9.897243e+00 -2.519127e+00 4.173028e+00 69 68 60
-7.538019e+00 -2.484409e+00 5.126037e+00 44 41 41
-1.099289e+01 -2.022573e+00 3.849121e+00 73 77 76
-2.191814e+01 2.073324e+00 -9.904817e-01 209 202 186
-5.926686e+01 2.287295e+01 -8.639154e+01 197 172 116
-6.040214e+01 1.884523e+01 -6.385921e+01 190 170 129
-5.084945e+01 2.444294e+01 -8.777713e+01 252 217 134
-6.023146e+01 1.946876e+01 -6.372384e+01 191 168 129
-6.064258e+01 1.950315e+01 -6.371380e+01 183 162 125
-5.755369e+01 2.572309e+01 -8.901971e+01 248 210 164
-6.032274e+01 2.126935e+01 -6.316975e+01 187 169 134
-6.103811e+01 2.256944e+01 -6.306392e+01 180 162 122
-5.963295e+01 2.278171e+01 -6.373616e+01 225 198 135
-5.947289e+00 -2.329294e+00 5.991130e+00 229 232 225
-6.105635e+01 2.292329e+01 -8.346901e+01 249 234 210
-5.081883e+01 2.431965e+01 -8.780164e+01 253 217 135
-6.001087e+01 1.908706e+01 -6.394868e+01 231 201 145
-5.998508e+01 1.924707e+01 -6.390804e+01 238 204 147
-6.025878e+01 2.006154e+01 -6.351726e+01 184 172 127
-6.025878e+01 2.006154e+01 -6.351726e+01 184 172 127
-5.990045e+01 2.057704e+01 -6.354061e+01 193 167 121
-5.612149e+01 2.736188e+01 -9.108652e+01 254 225 180
-7.032266e+01 2.810710e+01 -8.668063e+01 192 126 96
-6.018576e+01 2.235115e+01 -6.262377e+01 118 105 62
-6.091197e+01 2.256667e+01 -6.307239e+01 132 112 78
-5.950340e+01 2.288373e+01 -6.398000e+01 209 191 143
-5.079406e+01 2.472152e+01 -8.773513e+01 214 184 128
-5.770445e+01 2.521442e+01 -8.884643e+01 124 110 74
-6.106570e+01 2.483790e+01 -8.322893e+01 70 76 62
-4.892768e+01 3.053003e+01 -1.034077e+02 116 110 99
-4.820396e+01 3.117039e+01 -1.043325e+02 160 140 108
-4.752985e+01 3.202082e+01 -1.054393e+02 251 220 184
-6.080508e+01 2.734244e+01 -8.307573e+01 233 192 155
-6.029881e+01 2.235440e+01 -6.264323e+01 168 151 112
-2.615018e+00 -3.050525e+00 5.360960e+00 17 19 33
1.766505e-01 -2.033302e+00 1.895491e+00 254 254 251
1.802005e-01 -2.035089e+00 1.899591e+00 254 254 251
-1.090389e-01 -2.028349e+00 2.576191e+00 115 122 166
-3.755234e-01 -2.082290e+00 3.269288e+00 252 248 237
-7.730555e-03 -1.855281e+00 2.403749e+00 250 249 249
-1.803247e-01 -1.666760e+00 2.964456e+00 255 254 254
1.516066e-01 -2.145714e+00 2.047131e+00 116 117 130
-3.950784e-01 -2.323189e+00 3.194876e+00 238 242 235
-3.950784e-01 -2.323189e+00 3.194876e+00 238 242 235
-3.231678e-01 -1.789753e+00 3.205877e+00 255 252 240
-4.414980e+01 1.645110e+01 -7.554987e+01 124 101 82
-4.693637e+01 1.768429e+01 -7.571693e+01 142 123 83
8.929688e-02 -2.277890e+00 2.120707e+00 248 248 241
9.905280e-02 -2.081354e+00 2.044552e+00 126 133 155
-7.931376e-02 -1.590651e+00 2.742312e+00 127 124 132
1.382526e+01 9.117313e+00 -4.132083e+01 121 105 52
-9.921379e+01 2.419499e+01 -1.042593e+02 160 160 134
-4.619332e+01 1.658760e+01 -7.570689e+01 143 163 171
-1.763261e+01 3.288354e+00 7.349584e-01 188 226 231
-3.212272e+02 4.581745e+01 -2.185477e+02 255 255 255
-3.254749e+02 3.997640e+01 -2.110350e+02 55 61 66
-3.383701e+02 3.967274e+01 -2.111957e+02 65 64 68
-3.212807e+02 4.464478e+01 -2.252717e+02 254 255 252
-3.212807e+02 4.464478e+01 -2.252717e+02 254 255 252
-3.266879e+02 4.218470e+01 -2.112496e+02 255 255 252
-3.204152e+02 4.711707e+01 -2.248068e+02 58 56 74
-3.253560e+02 4.489105e+01 -2.311287e+02 123 118 107
-2.169883e-01 -2.188222e+00 2.764545e+00 234 243 245
-2.176297e-01 -2.182470e+00 2.765677e+00 234 243 245
-3.213532e+02 4.240941e+01 -2.227054e+02 65 63 80
-3.207837e+02 4.570529e+01 -2.272771e+02 121 120 106
-7.670269e+01 3.094389e+01 -8.984972e+01 244 182 143
-2.567712e+00 -3.040710e+00 5.317052e+00 29 29 39
-3.450207e+00 -2.363080e+00 5.708202e+00 197 208 225
-3.450207e+00 -2.363080e+00 5.708202e+00 197 208 225
-9.816620e+00 4.548493e+00 -3.261311e+01 237 229 208
-3.196046e+02 4.302213e+01 -2.254861e+02 148 143 138
-2.991400e+02 4.975694e+01 -2.262901e+02 179 164 105
-6.087536e+01 2.241750e+01 -8.529912e+01 86 77 71
-4.552099e+01 1.711796e+01 -7.555331e+01 236 228 166
-4.668744e+01 1.768633e+01 -7.609675e+01 167 145 90
-3.324309e+02 4.017042e+01 -2.067650e+02 76 74 67
-5.223908e+01 2.071155e+01 -8.176682e+01 210 221 154
-5.133249e+01 2.129184e+01 -8.246645e+01 226 243 152
-3.362973e+02 4.726553e+01 -2.168027e+02 172 185 219
-3.797131e-01 -1.836349e+00 3.363278e+00 252 250 245
-2.621435e+00 -2.754192e+00 5.927744e+00 168 107 41
-1.334501e+00 -1.338354e+00 4.944635e+00 230 231 226
-3.529028e+02 3.054691e+01 -1.477777e+02 92 109 140
-3.490395e+02 3.105308e+01 -1.438299e+02 255 254 254
7.572461e-01 -7.920593e-01 -8.340744e-02 180 106 57
-3.521094e+02 2.481729e+01 -1.321734e+02 96 99 130
-3.604811e+02 2.524646e+01 -1.311795e+02 248 247 249
-3.268937e+02 4.933823e+01 -2.153503e+02 255 254 255
-7.363382e+00 -3.978803e+00 4.798212e+00 126 127 133
-2.205262e-02 -4.297200e-01 8.589248e-01 237 245 242
-2.479472e+01 1.616470e+01 -6.844877e+01 243 238 150
-6.033371e+00 3.448956e+00 2.239586e+00 192 216 216
-3.551292e+02 2.650644e+01 -1.386042e+02 102 117 142
-3.551292e+02 2.650644e+01 -1.386042e+02 102 117 142
-9.554005e+01 2.462528e+01 -1.016048e+02 169 158 137
-9.554005e+01 2.462528e+01 -1.016048e+02 169 158 137
-3.485418e+02 3.077634e+01 -1.413535e+02 255 254 254
-5.349827e-01 -5.121261e+00 4.717761e+00 60 59 59
-2.530935e+00 -2.600008e+00 5.880031e+00 255 207 73
-3.700757e-02 -1.503919e+00 2.686272e+00 255 254 255
-6.658733e-01 -5.522775e-01 2.463661e+00 194 196 182
-7.461841e+01 1.929170e+01 -9.099217e+01 242 239 220
-4.559607e+02 2.308278e+01 -1.490781e+02 88 91 61
-4.559607e+02 2.308278e+01 -1.490781e+02 88 91 61
-2.680797e+01 1.876148e+01 -6.996311e+01 236 253 163
-3.143250e+01 1.328108e+01 -6.599355e+01 212 209 149
-4.083400e+01 1.726789e+01 -7.546414e+01 236 221 156
-2.690397e+01 1.708338e+01 -6.809370e+01 214 234 137
-1.182565e+01 3.996425e+00 -1.046367e+00 73 107 141
-2.652790e+01 1.832069e+01 -6.987020e+01 229 245 155
-2.654152e+01 1.885405e+01 -7.036808e+01 228 252 129
3.184897e+00 -6.466935e+00 1.027655e+01 53 61 68
1.101696e-01 -2.302806e+00 2.065616e+00 63 60 63
-3.360061e-01 -2.353516e+00 3.021826e+00 254 255 253
1.234408e-01 -2.085703e+00 1.995109e+00 251 253 247
-7.425805e-01 -6.717222e-01 2.702609e+00 34 31 36
-7.936208e+00 2.188714e+00 -8.306348e-01 30 39 49
-3.202390e+01 1.441313e+01 -6.836948e+01 241 249 155
-2.701889e+01 1.635425e+01 -6.867040e+01 118 101 56
-2.668237e+01 1.663705e+01 -6.859179e+01 232 248 141
-2.794249e+01 1.682658e+01 -6.769870e+01 227 244 130
-2.835333e+01 1.778914e+01 -6.906763e+01 226 233 129
-2.801050e+01 1.814874e+01 -6.940573e+01 114 98 42
-2.835057e+01 1.822031e+01 -6.947420e+01 105 113 43
-3.272968e+02 4.133742e+01 -2.092085e+02 156 142 139
-2.788190e+01 1.850270e+01 -6.950096e+01 123 118 67
-3.218342e+02 4.817901e+01 -2.187469e+02 123 133 156
4.564830e-01 -9.504436e-01 1.258095e+00 238 239 237
-3.172317e+00 -1.352635e+00 4.242053e+00 255 255 255
-2.230867e+00 -3.282527e+00 5.061226e+00 254 254 254
3.558266e-01 -1.188733e+00 -1.372845e+00 50 50 52
4.314469e-01 -1.494300e+00 1.432419e+00 178 187 182
1.482851e-01 -1.029927e+00 1.505982e+00 243 245 244
-2.088521e+01 4.147122e+00 -5.471315e+00 119 156 174
-1.257638e-01 -2.237479e+00 2.530868e+00 166 172 183
4.614142e-01 -7.186301e-01 -9.673870e-01 173 105 21
-8.096023e+01 2.844649e+01 -9.282961e+01 246 175 141
-7.475615e+01 2.785145e+01 -8.929081e+01 246 179 145
-2.949690e-01 -1.772936e+00 3.469374e+00 233 228 228
9.992171e-02 -7.409851e-02 5.920132e-01 252 252 252
-8.626606e+01 2.724719e+01 -9.595934e+01 246 182 153
-8.626606e+01 2.724719e+01 -9.595934e+01 246 182 153
2.134567e+00 -7.129229e+00 1.242938e+01 48 53 54
-9.442636e-02 -5.986384e-01 7.089538e-01 175 194 208
-7.742809e+01 1.929579e+01 -9.259616e+01 234 233 212
-3.980354e+01 1.855129e+01 -7.666598e+01 142 121 71
-8.262179e+01 2.022524e+01 -9.534182e+01 140 143 142
-8.746070e+01 2.354337e+01 -9.718426e+01 222 210 184
-8.677910e+01 2.450125e+01 -9.672665e+01 90 76 71
-8.310464e+01 2.437606e+01 -9.479701e+01 97 76 73
-8.546331e+01 2.540133e+01 -9.591854e+01 252 187 157
-8.546331e+01 2.540133e+01 -9.591854e+01 252 187 157
-8.364056e-02 -2.137227e+00 2.505004e+00 254 255 251
2.920146e-01 -1.705391e+00 1.748635e+00 70 69 79
2.083493e-02 -1.674332e+00 2.423284e+00 255 255 255
-1.707217e+00 -1.005380e+00 4.387679e+00 37 40 56
-1.004675e+01 5.051463e-01 3.763233e+00 160 202 244
-5.375101e+01 9.613910e+00 -5.671986e+01 169 158 136
-4.884625e+01 1.562345e+01 -7.306784e+01 185 174 119
-8.971077e+01 2.572072e+01 -9.816020e+01 254 190 159
-8.971077e+01 2.572072e+01 -9.816020e+01 254 190 159
-8.915360e+01 2.669140e+01 -9.805736e+01 117 76 73
-3.259917e-01 -2.493895e+00 3.115264e+00 244 244 244
-2.318370e-01 -2.423663e+00 2.773391e+00 216 217 212
9.775754e-02 -2.238525e+00 2.107950e+00 187 187 189
-4.722698e-01 -6.340544e-01 -1.231654e+01 123 127 128
5.561476e-01 -1.982927e-01 -1.334388e+01 125 107 93
2.932789e-01 -1.351304e+00 1.989262e+00 255 255 255
-8.133437e-01 -7.180801e-01 2.786864e+00 48 52 61
-5.564028e+01 8.675428e+00 -5.395288e+01 229 221 184
-5.306731e+01 1.036897e+01 -5.806915e+01 125 116 107
-8.646647e+01 1.954488e+01 -9.768599e+01 252 254 244
-8.530417e+01 2.229549e+01 -9.609524e+01 252 246 226
-8.492744e+01 2.341162e+01 -9.558894e+01 116 111 109
-9.054922e+01 2.723667e+01 -9.837866e+01 241 173 143
-7.750869e+01 2.874676e+01 -9.120744e+01 254 192 157
2.120541e+00 -7.741069e+00 1.468350e+01 30 32 37
2.617845e-01 -2.148635e+00 1.692174e+00 128 129 123
-2.503595e-01 -2.019842e+00 2.950147e+00 251 251 243
-2.514760e-01 -2.017284e+00 2.947374e+00 251 251 243
-3.522004e-01 -1.958443e+00 3.207631e+00 251 249 244
3.545942e-01 -1.077337e+00 -1.648837e+00 38 38 37
-7.485461e-01 -6.388108e-01 2.537521e+00 28 33 49
-7.485461e-01 -6.388108e-01 2.537521e+00 28 33 49
-1.272019e+01 3.249185e+00 -2.821163e+01 238 235 230
-8.933976e+01 -6.100874e+00 -3.644732e+00 164 145 120
-9.129181e+01 -5.112095e+00 -2.565573e+00 82 72 52
-5.295085e+01 9.072464e+00 -5.574938e+01 103 99 88
-7.774612e+01 1.859371e+01 -9.278153e+01 247 244 217
-1.158604e+01 3.975386e+00 -1.013624e+00 158 187 190
-1.172398e+01 3.921413e+00 -8.661592e-01 167 192 193
-1.344765e+01 3.380269e+00 2.053311e+00 165 199 221
-7.035064e+01 2.471937e+01 -8.573438e+01 124 73 69
-8.368354e+01 3.052991e+01 -9.382649e+01 248 182 149
-3.648161e-01 -2.180652e+00 3.214635e+00 111 114 147
-1.107298e-01 -2.028530e+00 2.575295e+00 115 122 166
-5.152546e-01 -2.156108e+00 3.573364e+00 41 49 52
1.368836e-01 -1.773168e+00 2.094887e+00 255 255 254
3.235705e-01 -1.605874e+00 1.719698e+00 124 127 123
3.235705e-01 -1.605874e+00 1.719698e+00 124 127 123
-2.501375e-01 -1.694933e+00 3.149310e+00 130 123 129
-8.565631e-01 -6.782608e-01 2.922215e+00 218 220 213
-6.935924e-01 -5.927640e-01 2.539168e+00 35 37 50
-7.997329e-01 -5.701758e-01 2.806613e+00 29 31 59
-7.229758e-01 -5.192633e-01 2.635750e+00 31 32 53
-7.238529e-01 -5.197066e-01 2.634656e+00 31 32 53
-1.679759e+01 1.149099e+00 -2.089718e+01 242 237 230
-1.398980e+01 2.586617e+00 -2.588863e+01 234 233 218
-1.231838e+01 3.369787e+00 -2.839134e+01 237 241 219
-5.676664e+01 8.171327e+00 -5.175839e+01 214 202 178
-1.290325e+02 -6.956846e-01 -2.922587e+01 135 134 132
-5.152057e+01 1.579544e+01 -7.405196e+01 61 61 22
-8.379695e+01 1.925992e+01 -9.605624e+01 255 255 225
-8.004607e+01 1.948371e+01 -9.386119e+01 243 242 222
-8.405107e+01 1.997866e+01 -9.599967e+01 255 254 244
-8.510530e+01 2.459576e+01 -9.594634e+01 127 90 81
-8.979732e+01 2.508496e+01 -9.852334e+01 129 96 81
-8.247611e+01 3.002908e+01 -9.306523e+01 163 105 87
-8.247611e+01 3.002908e+01 -9.306523e+01 163 105 87
1.150025e+01 -5.854200e+00 9.304564e+00 140 138 121
-1.969227e-01 -2.384640e+00 2.808193e+00 239 241 240
6.725789e-02 -2.230975e+00 2.207550e+00 124 122 136
-2.329307e-01 -2.354669e+00 2.854573e+00 125 127 149
-4.179714e-01 -1.880929e+00 3.440559e+00 254 252 244
-7.523556e-01 -6.692557e-01 2.688835e+00 27 28 43
-8.243497e-01 -6.499940e-01 2.881840e+00 32 28 43
-8.258292e-01 -6.492109e-01 2.881698e+00 32 28 43
-1.609831e+01 1.386847e+00 -2.146056e+01 202 203 184
-9.141272e+01 -4.603912e+00 -5.319186e+00 208 114 115
-1.248768e+01 1.022085e+00 3.012901e+00 162 182 206
-9.441285e+01 -4.145680e+00 -7.225026e+00 106 75 54
-5.178131e+01 9.694111e+00 -5.789922e+01 113 101 89
-5.400444e+01 9.345966e+00 -5.646907e+01 180 173 141
-4.671080e+01 1.278686e+01 -6.910119e+01 245 234 201
-5.407566e+01 1.163536e+01 -6.077245e+01 132 136 80
-4.067977e+01 1.768361e+01 -7.622561e+01 235 211 161
-7.521760e+01 1.853690e+01 -9.125913e+01 121 116 111
-8.550654e+01 2.020131e+01 -9.689316e+01 185 181 170
-8.937143e+01 2.052802e+01 -9.921003e+01 180 173 162
-8.200782e+01 9.497733e+00 -3.757720e+01 170 199 205
-7.891449e+01 2.320281e+01 -9.189535e+01 231 226 186
-8.790491e+01 2.705981e+01 -9.704860e+01 234 169 137
-8.527413e+01 2.750579e+01 -9.549827e+01 229 162 142
-8.219837e+01 3.103465e+01 -9.283221e+01 253 188 158
-2.373783e-01 -2.474008e+00 2.868162e+00 249 250 246
-3.410997e-01 -2.445168e+00 3.156405e+00 254 254 254
-3.205075e-01 -2.407994e+00 3.071457e+00 121 125 138
8.431101e-02 -2.210573e+00 2.147062e+00 253 253 253
-1.554592e-01 -2.309930e+00 2.686399e+00 130 127 153
1.276117e-01 -2.127603e+00 1.967021e+00 129 130 143
-4.427213e-01 -2.339128e+00 3.305774e+00 251 250 242
-2.930767e-04 -2.095750e+00 2.270103e+00 106 111 125
3.812113e-01 -1.065851e-01 -1.357809e+01 140 143 122
-8.992023e-02 -1.699184e+00 2.639648e+00 255 254 249
-1.594463e-01 -1.666752e+00 2.951590e+00 254 254 255
-1.283803e-01 -1.538276e+00 2.871958e+00 255 254 255
1.053345e-01 -1.421349e+00 2.291491e+00 255 254 254
4.248490e-02 -1.437121e+00 2.489599e+00 254 253 254
-7.138583e-01 -7.222351e-01 2.608637e+00 26 27 48
-6.553926e-01 -6.252772e-01 2.498680e+00 218 215 213
-1.581456e+01 1.701828e+00 -2.301957e+01 238 234 219
-2.774508e+01 4.584458e+00 -3.497879e+01 238 242 219
-2.774508e+01 4.584458e+00 -3.497879e+01 238 242 219
-2.154836e+01 9.162233e+00 -5.354178e+01 170 166 160
-7.985749e+00 1.318341e+00 1.821536e+00 159 180 207
-9.094558e+01 -4.909858e+00 -7.673538e+00 242 218 190
-4.381327e+01 1.479435e+01 -7.290105e+01 251 238 184
-4.259099e+01 1.753978e+01 -7.565761e+01 204 214 163
-7.461013e+01 1.867598e+01 -9.102886e+01 202 196 176
-4.342389e+01 1.784424e+01 -7.607326e+01 108 109 77
-5.512843e+01 1.665061e+01 -7.436493e+01 85 79 28
-5.769184e+01 1.858389e+01 -8.001550e+01 152 148 104
-4.076194e+01 1.942589e+01 -7.704936e+01 211 216 149
-4.197899e+01 1.941742e+01 -7.688091e+01 97 75 26
-4.199823e+01 1.941972e+01 -7.691351e+01 97 75 26
-1.162542e+01 3.890770e+00 -1.037968e+00 62 101 135
-1.340011e+01 3.229173e+00 2.136626e+00 42 65 86
-1.723063e+02 2.861789e+01 -1.452631e+02 212 214 170
-7.178976e+01 2.763437e+01 -8.799115e+01 245 181 143
-1.110240e+02 2.692813e+01 -1.102775e+02 192 162 123
-4.734371e+01 1.719160e+01 -7.616617e+01 66 66 34
-3.482789e-01 -3.287363e-01 1.332277e+00 22 22 20
-4.588969e+01 1.733348e+01 -7.574126e+01 84 82 41
-3.325509e-01 -2.151243e+00 3.105559e+00 233 220 205
-3.119561e-01 -2.089389e+00 3.117281e+00 225 216 195
2.672644e-01 -1.354437e+00 1.970119e+00 223 218 208
-4.849519e+01 1.764258e+01 -7.533558e+01 159 160 107
-4.780249e+01 1.804515e+01 -7.659263e+01 70 50 29
-1.174241e+01 3.996356e+00 -9.760179e-01 58 82 114
-1.146195e+02 2.724948e+01 -1.125701e+02 196 155 127
-5.970564e+01 2.320172e+01 -8.551734e+01 198 177 146
-3.349540e-01 -2.269213e+00 3.069968e+00 229 225 209
-3.401026e-01 -2.270823e+00 3.066045e+00 229 225 209
-2.316864e-02 -2.065263e+00 2.346153e+00 203 193 180
-2.459144e-02 -2.066720e+00 2.343838e+00 203 193 180
-4.402296e+01 1.554594e+01 -7.491416e+01 138 108 62
-4.521904e+01 1.632881e+01 -7.567542e+01 68 45 19
-4.479780e+01 1.648168e+01 -7.586782e+01 90 70 33
-4.643324e+01 1.700056e+01 -7.573972e+01 90 87 42
-5.911915e+01 2.313620e+01 -8.803915e+01 83 70 53
-1.535043e-01 -1.617587e+00 2.926992e+00 100 94 96
-4.309597e+01 1.529377e+01 -7.399845e+01 168 156 83
-4.432796e+01 1.589561e+01 -7.528670e+01 111 78 42
-4.432796e+01 1.589561e+01 -7.528670e+01 111 78 42
-4.670469e+01 1.673168e+01 -7.568264e+01 61 43 23
-4.569708e+01 1.745495e+01 -7.604281e+01 32 34 13
-5.191249e+01 2.056671e+01 -8.160675e+01 81 82 38
-5.318361e+01 2.206627e+01 -8.363370e+01 78 90 31
-2.121416e+00 -3.092626e+00 5.040201e+00 240 237 230
-2.084806e-01 -2.219974e+00 2.756117e+00 198 208 211
-2.877113e-01 -2.204170e+00 2.961223e+00 231 227 215
-7.206115e-02 -1.546251e+00 2.748346e+00 110 103 100
-6.390862e-01 -5.819948e-01 2.445651e+00 29 22 21
-6.829542e-01 -5.605606e-01 2.532509e+00 51 47 40
-3.416486e-01 -2.384940e+00 3.160491e+00 196 208 208
2.010508e-01 -2.142512e+00 1.902596e+00 214 208 198
-1.947548e-01 -2.134559e+00 2.762985e+00 205 208 201
-3.568579e-01 -2.166880e+00 3.153323e+00 231 227 216
-1.421352e-01 -1.725219e+00 2.761435e+00 232 205 189
-3.250914e-02 -1.583140e+00 2.636435e+00 103 92 88
-3.250914e-02 -1.583140e+00 2.636435e+00 103 92 88
2.581735e-01 -1.445748e+00 1.919949e+00 199 180 160
-8.331871e-02 -1.510509e+00 2.779272e+00 230 220 213
-8.342501e-03 -1.478587e+00 2.621341e+00 89 84 81
-1.221882e+00 -7.404305e-01 3.236330e+00 114 113 100
-1.221882e+00 -7.404305e-01 3.236330e+00 114 113 100
1.032376e-01 -1.565629e+00 2.340409e+00 252 251 246
1.801352e-01 -1.807086e+00 1.966960e+00 101 116 156
-6.048754e-01 -6.310786e-01 2.394094e+00 19 23 35
-8.306673e-02 -1.927515e+00 2.528870e+00 236 235 233
-2.875487e+02 4.337637e+01 -2.137116e+02 178 160 123
1.994343e+00 -5.186858e+00 5.352368e+00 190 174 149
-2.805096e+02 4.113486e+01 -2.071735e+02 179 168 118
-1.215010e-01 -2.216375e+00 2.579070e+00 228 229 229
8.277267e-02 -1.976907e+00 2.112681e+00 246 247 240
-2.780195e-01 -2.084022e+00 2.972332e+00 245 241 237
3.360526e-01 -1.053900e+00 -1.696477e+00 7 7 8
9.538730e-02 -1.404646e+00 2.387701e+00 252 251 251
-5.293051e+01 1.155253e+01 -6.109953e+01 190 182 138
-1.404725e+02 2.540243e+01 -1.279090e+02 242 234 194
-1.425715e+02 2.566472e+01 -1.289963e+02 247 230 185
-1.929764e+02 3.065763e+01 -1.564134e+02 199 197 143
-3.210566e+02 4.830404e+01 -2.189697e+02 248 249 251
-2.308026e+01 4.119029e+00 -7.166672e+00 117 135 129
-1.639740e+00 -1.095391e+00 4.317805e+00 175 179 165
-1.622899e+00 -1.091326e+00 4.339938e+00 175 179 165
-1.933537e-01 -2.373710e+00 2.797190e+00 210 206 184
1.334795e-02 -2.218907e+00 2.320282e+00 205 209 176
-3.220186e-01 -1.849483e+00 3.178778e+00 224 195 167
-2.642719e-01 -1.831554e+00 3.040540e+00 223 199 161
-1.996665e-01 -1.801354e+00 2.883618e+00 169 64 59
-3.494949e-02 -1.699634e+00 2.511737e+00 93 34 38
-3.155105e-01 -1.877720e+00 3.143778e+00 161 64 67
-2.487312e-01 -1.799352e+00 3.025983e+00 176 58 65
5.753901e-02 -1.785490e+00 2.240105e+00 125 128 101
-8.863709e-02 -1.571845e+00 2.779051e+00 199 196 182
-2.776197e+01 4.592034e+00 -3.497422e+01 216 211 186
1.831325e-01 -1.916099e+00 1.937417e+00 33 35 36
1.709321e-01 -1.884819e+00 1.978703e+00 112 112 104
1.709321e-01 -1.884819e+00 1.978703e+00 112 112 104
-5.116137e+01 1.087789e+01 -6.141060e+01 156 147 129
-1.011524e+02 2.128248e+01 -1.060176e+02 250 251 237
-2.622387e+01 1.934105e+01 -7.163600e+01 85 86 31
-4.997350e+01 2.021609e+01 -8.155833e+01 255 230 152
-3.566935e+02 2.606129e+01 -1.334690e+02 85 99 119
-3.604703e+02 1.990737e+01 -1.434128e+02 45 44 51
-3.558791e+02 2.130295e+01 -1.476974e+02 60 66 76
-3.473101e+02 2.472506e+01 -1.483720e+02 255 255 255
-3.552217e+02 2.912901e+01 -1.442576e+02 95 112 133
-3.516117e+02 2.329994e+01 -1.459406e+02 239 241 226
-3.574645e+02 2.444307e+01 -1.358894e+02 254 255 251
-3.311230e+02 4.846942e+01 -2.168747e+02 110 126 160
-5.480275e+02 4.238753e+01 -2.580748e+02 214 214 190
-5.480275e+02 4.238753e+01 -2.580748e+02 214 214 190
-5.556247e+02 4.463874e+01 -2.663184e+02 71 78 101
-3.603956e+02 2.262101e+01 -1.296476e+02 254 255 252
-1.926703e-01 -1.968002e+00 2.836782e+00 253 252 248
-3.861504e+02 2.169471e+01 -1.480912e+02 202 206 188
-3.607624e+02 2.539815e+01 -1.579468e+02 38 50 60
-3.620185e+02 2.241012e+01 -1.285478e+02 255 253 250
-3.508136e-01 -2.038437e+00 3.156051e+00 255 254 254
-5.748126e+01 1.116573e+00 -6.175793e+00 203 199 187
-3.813011e+02 1.921226e+01 -1.382623e+02 192 194 180
-5.491551e+02 4.547036e+01 -2.595656e+02 144 163 175
-2.061911e-01 -2.101539e+00 2.817306e+00 118 123 154
-2.523579e+00 -1.710956e+00 5.585108e+00 255 253 246
-3.411694e+02 1.990145e+01 -1.381917e+02 179 180 179
-3.520397e+02 2.112319e+01 -1.385403e+02 209 210 197
-3.513297e+02 2.369409e+01 -1.433244e+02 92 84 104
-3.631536e+02 2.202685e+01 -1.279213e+02 255 245 243
-3.323633e+02 4.150838e+01 -2.081350e+02 68 66 54
-2.581943e+01 2.054094e+01 -7.425148e+01 205 227 130
-1.091849e+01 2.708351e+00 2.743805e+00 117 158 176
-3.764006e+02 2.632927e+01 -1.038527e+02 225 209 177
-5.622765e+01 7.895150e+00 -5.182559e+01 116 114 109
-3.567926e+02 2.927447e+01 -1.371255e+02 254 255 255
-3.585202e+00 -1.924822e+00 6.309056e+00 170 168 174
-4.099077e+00 -1.576288e+00 6.379099e+00 215 131 84
-3.621870e+02 2.671069e+01 -1.330638e+02 85 101 127
-3.529080e+02 3.202675e+01 -1.491262e+02 255 254 255
-3.817011e+02 3.034892e+01 -1.096470e+02 237 220 191
-3.118039e+00 -1.851041e+00 6.031738e+00 233 231 222
-1.673714e+00 -1.141537e+00 4.154016e+00 47 56 80
-4.361305e+00 -1.694930e+00 6.340302e+00 209 203 200
-8.169029e+00 1.303977e+00 1.650021e+00 155 180 210
-9.777274e+00 1.220621e+00 2.581654e+00 63 69 75
-2.317967e+02 -3.434917e+00 -3.294029e+01 255 226 198
-1.657498e+02 2.725485e+01 -1.400696e+02 252 253 248
-3.583560e+02 2.389517e+01 -1.337183e+02 255 255 255
-3.544759e+02 3.043511e+01 -1.449565e+02 76 92 126
-3.544759e+02 3.043511e+01 -1.449565e+02 76 92 126
-7.076241e+01 2.477152e+01 -8.635704e+01 124 73 69
-3.591150e+02 2.758271e+01 -8.983905e+01 71 63 47
-1.175586e+00 -2.578345e+00 3.533853e+00 31 31 35
-2.125177e-01 -1.601591e+00 3.078902e+00 254 254 254
-2.125177e-01 -1.601591e+00 3.078902e+00 254 254 254
-8.174273e-01 -6.623222e-01 2.875869e+00 30 32 50
-1.900184e-01 1.033257e+00 -1.428745e+00 42 40 51
-1.167446e+01 2.770325e+00 -3.572653e+00 63 104 132
-1.889047e+02 2.967445e+01 -1.535470e+02 254 253 242
-3.614665e+02 2.471165e+01 -1.331270e+02 111 115 138
-2.848649e+02 1.003226e+01 -4.988122e+01 201 198 143
-2.648577e+02 8.232441e+00 -3.725472e+01 219 208 147
-3.765445e+02 2.782539e+01 -9.940259e+01 121 117 94
-3.586517e+02 2.745437e+01 -9.072687e+01 224 208 174
-1.710168e+00 -2.547508e+00 5.222074e+00 255 202 63
-2.749840e+00 -1.815773e+00 6.033553e+00 237 235 222
-8.456340e-01 -8.356497e-01 2.826073e+00 132 147 164
-3.367202e+00 -1.067320e+00 6.251116e+00 19 21 47
-1.964034e+02 -4.313007e+00 -2.457598e+01 111 122 67
-3.584416e+02 2.672567e+01 -1.310633e+02 95 101 107
-2.895434e+00 -3.267151e+00 5.784946e+00 222 227 223
-5.866486e+00 -3.372355e+00 5.635484e+00 200 217 228
-7.764753e-01 -7.631221e-01 2.731822e+00 27 33 60
-3.360354e+00 -1.554010e+00 6.188662e+00 255 254 252
-2.152620e+02 -2.662750e+00 -2.362126e+01 153 148 120
-2.142836e+02 -2.462942e+00 -2.261613e+01 135 128 100
-3.590836e+02 2.130624e+01 -1.282638e+02 217 217 215
-3.590836e+02 2.130624e+01 -1.282638e+02 217 217 215
-3.596590e+02 2.163739e+01 -1.257050e+02 255 255 250
-3.479931e+02 2.858622e+01 -1.456376e+02 127 125 156
-3.205714e+02 4.802736e+01 -2.179045e+02 124 125 158
-4.022636e-02 -2.328027e+00 2.428896e+00 222 220 208
-2.356726e-01 -1.681044e+00 3.066550e+00 238 233 223
-3.574229e+00 -4.340477e-01 2.069340e-01 175 175 170
-2.327884e+00 -1.853361e+00 4.958644e+00 199 205 211
8.905595e-03 -1.786846e+00 2.598142e+00 238 239 237
-3.721270e+00 1.953478e+00 -2.556710e+00 154 201 243
7.869041e-01 -1.034470e+00 -2.411233e-01 166 93 62
-3.148897e-01 -2.108218e+00 3.198098e+00 161 157 167
-7.213801e-01 -2.565552e+00 3.401136e+00 21 21 21
-7.213801e-01 -2.565552e+00 3.401136e+00 21 21 21
5.167901e-01 -1.614823e+00 -8.610361e-01 167 180 186
-4.644595e+00 -1.594506e+00 -9.107051e+00 44 51 66
-1.002865e+00 -7.468642e-01 3.069104e+00 195 197 182
-8.934523e+01 -6.251115e+00 -6.169650e-01 164 60 63
-5.761726e+01 7.714141e+00 -4.871146e+01 226 215 181
-1.210664e-01 -1.758146e+00 2.802309e-02 17 19 18
-5.236661e-02 -1.755428e+00 5.106794e-02 17 19 18
2.178802e-01 -1.266852e+00 1.816769e+00 106 106 111
-9.555575e+01 -9.536262e+00 1.157348e+01 183 173 148
-9.125103e+01 -7.471899e+00 5.816846e+00 105 107 92
-9.820420e+01 -1.048416e+01 1.458909e+01 184 175 146
-8.948619e+01 -6.645797e+00 1.055658e+00 243 113 99
3.975987e-01 -1.561272e+00 -1.781982e-01 255 253 254
-9.214047e+01 -8.206505e+00 6.694169e+00 152 146 124
-9.001379e+01 -7.213079e+00 2.831399e+00 255 128 115
-6.701887e+00 2.156375e+00 -1.380724e+00 130 164 199
-1.214906e+01 1.158035e+00 3.576071e+00 107 125 148
-2.135998e+00 -3.154287e+00 4.926333e+00 178 190 190
3.176941e-01 -1.190721e-01 -1.335158e+01 239 240 239
3.176941e-01 -1.190721e-01 -1.335158e+01 239 240 239
4.281181e-01 -1.556386e+00 -6.406280e-01 119 125 124
-1.713811e+00 -1.008245e+00 4.385569e+00 44 46 59
-2.224284e-01 -1.832464e-02 9.277959e-01 29 29 43
-2.224284e-01 -1.832464e-02 9.277959e-01 29 29 43
-8.839864e+01 -7.662005e+00 2.920204e+00 103 99 81
-9.736022e+01 -1.011856e+01 1.376366e+01 108 106 91
-9.737203e+01 -9.889358e+00 1.323612e+01 166 158 134
-7.444022e+00 2.690942e+00 -4.441412e+00 163 208 250
-1.272853e+01 -8.426032e+00 1.539868e+01 194 166 137
-5.341717e-01 -5.239210e-01 -1.217109e+01 219 219 214
-2.174752e-01 -1.497698e+00 3.030626e+00 90 94 106
-8.846614e-01 -7.855832e-01 2.976120e+00 23 23 31
-7.095318e-01 -6.548563e-01 2.578418e+00 21 27 35
-1.017291e+00 -5.912729e-01 2.924056e+00 34 36 49
-6.740639e-01 -4.327892e-01 2.449770e+00 25 29 37
5.468023e-02 1.010583e-01 7.178541e-01 141 136 136
-9.187568e+01 -7.881228e+00 4.513259e+00 192 178 149
-9.019434e+01 -7.043174e+00 1.132325e+00 235 124 110
-8.993647e+01 -6.858246e+00 6.088328e-01 246 120 106
-1.512425e+02 -9.147828e+00 2.390464e+00 179 186 114
-1.174942e+01 3.806689e+00 -1.081022e+00 55 90 121
-3.251816e+02 4.488206e+01 -2.309968e+02 64 63 74
4.879149e+00 -2.578940e+00 -3.872689e+00 247 249 247
4.879149e+00 -2.578940e+00 -3.872689e+00 247 249 247
-2.421988e-01 -2.450637e+00 2.919008e+00 241 241 237
-7.321445e-02 -2.354585e+00 2.545884e+00 238 240 237
-3.011433e+00 -3.369867e+00 5.652767e+00 74 79 81
-1.076755e+00 -2.545161e+00 3.404611e+00 18 19 21
-1.844192e-01 -2.078010e+00 2.653937e+00 242 242 244
1.992744e-01 -1.151533e+00 1.794324e+00 81 82 93
-1.635298e+00 -1.447244e+00 4.297603e+00 255 254 254
-5.048642e-02 -3.258423e-01 8.096239e-01 71 69 90
-1.679577e+00 -1.102194e+00 4.480464e+00 254 254 255
-9.785559e+01 -9.826501e+00 8.359638e+00 85 79 71
-1.008817e+02 -1.037029e+01 1.593143e+01 72 72 60
-1.029004e+02 -1.086838e+01 1.791064e+01 114 107 81
-9.842439e+01 -8.609464e+00 1.059728e+01 203 190 146
-9.152133e+01 -6.280428e+00 1.813410e+00 150 131 92
-6.831608e+00 2.523504e+00 -2.585518e+00 27 35 64
-9.135996e+01 -5.240800e+00 -2.032136e+00 108 100 68
-9.749821e+01 -6.323065e+00 2.270436e+00 166 155 110
-1.394590e+02 -1.166762e+01 1.764545e+01 253 253 253
-5.591190e+01 8.531624e+00 -5.322966e+01 197 186 155
-3.207876e+02 4.656870e+01 -2.289108e+02 115 116 114
1.988326e+00 -5.191428e+00 5.348345e+00 190 174 149
-2.880222e+00 -2.918286e+00 3.592035e+00 111 117 115
1.395959e-01 -1.772990e+00 2.096132e+00 253 251 242
-3.126006e+00 -1.906370e+00 6.186937e+00 151 149 152
-1.706288e+01 8.171430e-01 -1.994825e+01 60 67 77
-1.753037e+01 8.082214e-01 -1.974783e+01 150 153 116
-1.776957e+01 7.521278e-01 -1.962227e+01 203 203 183
-1.409145e+01 2.519695e+00 -2.561201e+01 159 155 139
-1.557687e+01 1.936164e+00 -2.344200e+01 121 120 118
-1.371990e+01 2.697395e+00 -2.621071e+01 164 164 161
-1.005309e+02 -1.167406e+01 1.700093e+01 38 39 29
-9.404156e+01 -7.697874e+00 6.799057e+00 109 108 74
-9.137956e+01 -5.126357e+00 -2.575661e+00 80 68 45
-7.622264e+00 3.094427e+00 -4.906568e+00 176 196 207
-1.529318e+02 -9.004439e+00 -4.522159e-01 43 44 30
-1.529318e+02 -9.004439e+00 -4.522159e-01 43 44 30
-1.276071e+01 -8.417375e+00 1.529096e+01 26 28 20
-1.432806e-01 -2.404285e+00 2.594207e+00 234 232 223
7.377373e-02 -2.230264e+00 2.209734e+00 119 116 128
-8.496355e-02 -2.261268e+00 2.498648e+00 119 118 138
7.952487e-01 6.627614e-02 -1.427876e+01 219 217 209
6.530375e-01 -1.008308e+00 -2.324158e-01 224 140 29
-7.996023e-01 -5.698211e-01 2.806413e+00 32 32 62
3.917660e-01 2.595193e-01 -1.269647e+00 204 204 194
-1.890732e+01 1.083524e-01 -1.725072e+01 162 173 169
-1.619748e+01 1.384403e+00 -2.154834e+01 220 217 208
-1.422100e+01 2.466799e+00 -2.547321e+01 193 192 174
-6.640664e+01 -6.919669e+00 3.044605e+00 144 141 133
-2.795726e+01 4.475734e+00 -3.463139e+01 215 216 203
-9.264091e+01 -1.012239e+01 1.184573e+01 57 58 55
-9.124798e+01 -8.462263e+00 5.405137e+00 124 123 67
-9.947356e+01 -1.084545e+01 1.580438e+01 74 71 60
-9.722315e+01 -8.837237e+00 1.055797e+01 136 134 93
-9.517035e+01 -7.837687e+00 7.842716e+00 209 197 140
-9.135642e+01 -6.158297e+00 1.241706e+00 125 96 65
-7.610364e+00 3.111533e+00 -4.746905e+00 122 150 179
-1.532688e+02 -8.922289e+00 -8.969919e-01 49 48 43
-5.862382e+01 7.855857e+00 -4.894790e+01 242 228 202
-6.252225e+01 8.210364e+00 -4.919690e+01 140 157 80
-6.252225e+01 8.210364e+00 -4.919690e+01 140 157 80
-5.913632e+01 1.048007e+01 -5.597622e+01 194 187 132
-2.968305e+00 -3.279231e+00 5.796827e+00 60 61 64
-5.665492e-02 -2.080397e+00 2.371451e+00 242 243 237
1.060482e-01 -1.769259e+00 2.195834e+00 248 244 243
7.729954e-02 -1.777020e+00 2.184245e+00 248 244 243
1.180030e+00 -1.073268e-01 -1.072313e+00 189 197 195
-1.229720e+00 -9.778945e-01 3.188979e+00 117 129 153
-5.102214e-01 -5.821264e-01 1.906170e+00 119 136 155
-6.594920e-01 -5.822482e-01 2.436707e+00 18 18 22
-7.546413e-01 -5.662483e-01 2.717843e+00 38 30 51
-9.377410e+01 -6.690963e+00 3.573208e+00 212 193 152
-3.209971e+02 4.631744e+01 -2.263973e+02 125 114 125
-3.305528e+02 2.091049e+01 -1.250653e+02 167 164 144
-6.201598e-02 -2.294621e+00 2.471282e+00 210 210 179
-2.717548e-01 -2.152642e+00 3.222707e+00 230 218 196
-1.415176e+00 -2.750193e+00 3.698790e+00 14 14 14
-1.729969e+00 -1.574130e+00 4.522401e+00 158 168 178
-1.100125e+00 -7.570945e-01 3.029308e+00 186 186 179
-1.102305e-01 -2.214666e+00 2.535329e+00 193 198 193
-1.607360e+00 -1.027290e+00 4.052131e+00 136 141 138
-1.706112e+00 -2.360409e+00 5.149197e+00 150 80 33
-1.272254e+00 -2.614962e+00 3.511403e+00 15 15 15
-3.325204e-02 -1.396013e+00 2.635542e+00 51 51 49
-1.650761e-01 -2.396694e+00 2.712993e+00 187 180 172
-2.662696e-01 -2.285713e+00 2.909834e+00 198 210 206
-2.157920e-01 -1.778078e+00 2.983954e+00 242 181 170
-4.372243e-02 -1.665895e+00 2.559968e+00 189 119 107
4.119095e-01 -1.545988e+00 -1.879151e-01 253 255 254
4.119095e-01 -1.545988e+00 -1.879151e-01 253 255 254
-2.834936e+00 -2.604203e+00 6.175376e+00 128 76 51
1.293539e-01 -2.232467e+00 2.042674e+00 156 151 145
-7.558671e-02 -2.176505e+00 2.429622e+00 182 189 185
2.158179e-01 -2.101511e+00 1.873002e+00 72 68 68
2.158179e-01 -2.101511e+00 1.873002e+00 72 68 68
-1.911250e-01 -1.843856e+00 2.843492e+00 230 216 199
-6.783302e-01 -7.134210e-01 2.458655e+00 40 43 45
-2.995571e-02 2.413289e-02 8.384453e-01 236 236 225
-6.831775e-01 -5.571614e-01 2.533518e+00 33 29 26
-2.626817e-01 -2.490475e+00 2.930956e+00 225 222 208
-3.338295e-01 -2.353583e+00 3.023945e+00 203 205 202
1.390823e-01 -2.256095e+00 2.053214e+00 205 201 189
-3.734481e-01 -2.242197e+00 3.217890e+00 228 223 201
-4.038178e-02 -2.188154e+00 2.384042e+00 167 178 172
2.411385e-02 -1.859684e+00 2.342771e+00 214 204 181
-3.498571e-01 -1.811361e+00 3.274196e+00 229 208 184
-3.498571e-01 -1.811361e+00 3.274196e+00 229 208 184
-2.855541e-01 -1.758492e+00 3.120461e+00 217 202 176
1.657007e-01 -1.465851e+00 2.200710e+00 89 80 77
-8.040871e-01 -6.679716e-01 2.761284e+00 26 26 27
-1.017194e+01 9.843391e-01 3.136718e+00 56 61 57
-1.932123e-01 -2.451357e+00 2.774802e+00 225 217 207
-2.459330e-01 -2.410027e+00 2.922710e+00 229 229 219
-4.218096e-01 -2.420858e+00 3.241789e+00 207 213 202
-5.497338e-02 -2.368355e+00 2.454370e+00 221 215 201
-1.363566e-01 -2.377031e+00 2.658561e+00 106 97 97
-1.363566e-01 -2.377031e+00 2.658561e+00 106 97 97
-1.744897e-02 -2.341695e+00 2.364979e+00 221 216 204
-1.517597e-01 -2.351590e+00 2.701588e+00 226 225 217
1.182496e-02 -2.320878e+00 2.296518e+00 213 213 197
-1.101217e-01 -2.328204e+00 2.584319e+00 108 104 100
-1.101217e-01 -2.328204e+00 2.584319e+00 108 104 100
3.742884e-02 -2.307221e+00 2.242019e+00 212 213 194
-3.666441e-03 -2.309007e+00 2.336198e+00 99 85 90
6.201760e-02 -2.290808e+00 2.187878e+00 206 204 193
-4.659466e-02 -2.289024e+00 2.475900e+00 221 222 212
-1.749389e-01 -2.271864e+00 2.695430e+00 192 203 196
-1.749389e-01 -2.271864e+00 2.695430e+00 192 203 196
2.027848e-01 -2.211474e+00 1.881600e+00 211 199 192
2.027848e-01 -2.211474e+00 1.881600e+00 211 199 192
-3.801318e-03 -2.105430e+00 2.319424e+00 168 176 174
-8.766142e-02 -2.019756e+00 2.516214e+00 218 215 198
-2.771902e-01 -2.000935e+00 3.059754e+00 226 214 194
-3.929496e-01 -1.924906e+00 3.355362e+00 181 108 102
-3.451971e-01 -1.881255e+00 3.244774e+00 177 96 88
-3.280763e-01 -1.868049e+00 3.203198e+00 186 96 88
-2.649759e-01 -1.831372e+00 3.039955e+00 238 211 188
-3.377466e-01 -1.819209e+00 3.237128e+00 181 102 95
-3.377466e-01 -1.819209e+00 3.237128e+00 181 102 95
-2.733557e-01 -1.811812e+00 3.072714e+00 173 92 89
-2.632857e-01 -1.777928e+00 3.054371e+00 231 202 179
-2.632857e-01 -1.777928e+00 3.054371e+00 231 202 179
-1.660365e-01 -1.764391e+00 2.828548e+00 235 204 184
-3.836829e-02 -1.698553e+00 2.507874e+00 167 85 85
-1.160079e-01 -1.704464e+00 2.707949e+00 232 197 179
-2.309673e-01 -1.706806e+00 3.090599e+00 224 223 208
-1.292700e-01 -1.691085e+00 2.739110e+00 177 86 89
-2.045036e-01 -1.689057e+00 3.019779e+00 107 96 92
4.485541e-01 -1.462370e+00 -6.896124e-01 126 125 115
-6.596586e-02 -1.515976e+00 2.744093e+00 77 70 74
1.151639e-01 -1.460441e+00 2.248372e+00 120 105 90
-7.522244e-01 -6.166262e-01 2.705445e+00 127 125 119
2.482163e+00 -4.890227e-01 5.569157e+00 60 65 60
-3.144323e-01 -2.472395e+00 3.075154e+00 130 124 118
-3.144323e-01 -2.472395e+00 3.075154e+00 130 124 118
-1.542413e-01 -2.426025e+00 2.674263e+00 225 221 208
-2.990581e-01 -2.443971e+00 3.050461e+00 233 231 223
-2.639925e-01 -2.420681e+00 2.975648e+00 228 231 221
-7.844940e-02 -2.342949e+00 2.525400e+00 104 97 91
-5.587676e-02 -2.341107e+00 2.464813e+00 224 223 213
-7.303902e-02 -2.334998e+00 2.487491e+00 109 104 101
-1.099304e-01 -2.300830e+00 2.609153e+00 228 222 215
2.678120e-02 -2.271777e+00 2.281089e+00 106 97 95
2.678120e-02 -2.271777e+00 2.281089e+00 106 97 95
-1.920517e-02 -2.267291e+00 2.391076e+00 223 227 217
1.031753e-01 -2.237096e+00 2.125880e+00 92 84 84
1.028723e-01 -2.237100e+00 2.126451e+00 92 84 84
1.443440e-01 -2.202297e+00 2.023043e+00 214 216 203
-1.059014e-01 -2.222923e+00 2.497640e+00 189 197 193
1.279082e-01 -2.183038e+00 2.069401e+00 213 215 208
1.858154e-01 -1.914929e+00 1.938248e+00 98 94 82
-3.736247e-01 -1.911976e+00 3.303045e+00 180 109 100
-3.041607e-01 -1.855975e+00 3.125658e+00 236 206 184
-3.809939e-01 -1.849409e+00 3.347961e+00 173 103 95
-3.809939e-01 -1.849409e+00 3.347961e+00 173 103 95
-2.868310e-01 -1.814132e+00 3.098259e+00 243 210 188
-2.986956e-01 -1.808927e+00 3.149792e+00 242 206 184
-3.485483e-01 -1.803523e+00 3.312789e+00 223 212 183
-1.575719e-01 -1.771072e+00 2.776275e+00 168 94 90
-1.284328e-01 -1.758851e+00 2.721363e+00 159 110 96
-1.284328e-01 -1.758851e+00 2.721363e+00 159 110 96
-1.579391e-01 -1.752587e+00 2.783536e+00 175 101 96
-2.178550e-01 -1.747319e+00 2.953102e+00 169 86 80
-2.685852e-01 -1.715060e+00 3.201047e+00 154 144 128
-1.641486e-01 -1.673841e+00 2.931702e+00 218 210 201
-1.146053e-01 -1.531105e+00 2.888709e+00 210 212 200
4.464427e-02 -1.476150e+00 2.481087e+00 99 98 95
4.464427e-02 -1.476150e+00 2.481087e+00 99 98 95
6.874670e-01 -1.108601e+00 -6.859161e-02 56 47 38
5.271636e-01 -1.074012e+00 -4.401398e-01 70 52 43
-7.475708e-01 -4.958765e-01 2.675748e+00 34 27 25
-1.041241e-01 8.806197e-02 8.718732e-01 145 145 140
6.722224e-01 -6.937416e-01 -8.321178e-01 138 80 22
-1.160880e+01 7.221731e-01 3.252019e+00 73 82 91
-3.565566e-01 -1.773999e+00 -1.203287e-01 25 27 26
5.164305e-01 -1.173052e+00 -1.765583e+00 225 222 216
5.164305e-01 -1.173052e+00 -1.765583e+00 225 222 216
-3.440710e-01 -1.214374e-01 -1.851036e-01 189 190 185
6.073095e-02 -2.389907e-01 7.066248e-01 255 255 255
-1.014717e+00 4.918800e-01 -2.572574e+00 95 82 82
-5.134943e-02 -2.359673e+00 2.648576e+00 231 232 228
4.007559e-01 -1.057763e+00 -1.642137e+00 17 17 19
-2.063563e-01 -1.631569e+00 3.048696e+00 249 249 250
-1.224809e-01 8.814591e-01 -1.362418e+00 219 217 205
-1.208738e+01 3.805191e+00 -1.163989e+00 55 92 126
-2.816575e-01 -2.433464e+00 2.778641e+00 220 222 219
-2.677344e-01 -2.453462e+00 2.907400e+00 236 237 235
-5.693954e-02 -2.166333e+00 2.292405e+00 106 120 151
-3.822014e-01 -2.101224e+00 3.264619e+00 233 234 220
-3.735580e-01 -1.756527e+00 3.507340e+00 250 250 245
-1.996358e+00 3.175030e-01 -3.719298e+00 132 135 136
-3.678326e+00 -1.127608e+00 6.100382e+00 38 40 60
-5.568022e-01 1.006226e+00 -1.556260e+00 30 33 49
-1.117714e+01 5.628855e-01 3.602559e+00 48 68 100
-3.074500e-01 -2.501803e+00 3.007461e+00 226 227 219
-2.774648e-01 -2.185434e+00 2.958319e+00 240 235 233
4.616984e-02 -1.513873e+00 2.431633e+00 255 254 255
-2.623189e+00 -1.712282e+00 5.492011e+00 243 240 233
-7.409722e-01 -6.700310e-01 2.693283e+00 38 36 49
-4.616714e+00 -1.929116e+00 -7.896090e+00 106 95 91
-1.115825e-01 -2.082155e+00 2.556578e+00 238 239 229
-4.039541e-01 -2.135764e+00 3.235172e+00 240 241 234
3.484997e-01 -1.207060e+00 -1.182362e+00 12 12 12
1.021671e-03 -1.678089e+00 2.415884e+00 201 195 183
-3.898459e-01 -3.378580e-01 1.282084e+00 25 27 26
-4.486231e-02 -2.165571e+00 2.323961e+00 67 79 92
2.668358e-01 -2.150552e+00 1.694372e+00 76 78 74
-2.936017e+00 -3.248571e+00 5.825427e+00 55 67 61
2.525732e-02 -1.625345e+00 2.484297e+00 190 183 169
-2.957249e+00 -3.192418e+00 5.730640e+00 119 120 105
-1.400048e-02 -3.870504e-01 8.538193e-01 230 230 229
-8.813916e-02 1.021214e+00 -1.444610e+00 131 135 147
-7.480099e-02 -2.382051e+00 2.514914e+00 217 207 204
-3.177122e-01 -2.528647e+00 3.089326e+00 222 213 205
2.039800e-01 -2.146057e+00 1.904100e+00 219 214 211
-3.941596e-01 -2.187124e+00 3.232983e+00 90 104 112
-3.941596e-01 -2.187124e+00 3.232983e+00 90 104 112
-7.409060e-02 -1.648066e+00 2.665024e+00 156 107 96
-8.254824e-01 -5.790991e-01 2.822264e+00 34 39 35
3.693805e-02 -2.307125e+00 2.241833e+00 214 206 204
-1.923426e-02 -2.342190e+00 2.364148e+00 214 209 202
-1.369894e-01 -2.410514e+00 2.627373e+00 213 207 200
1.027449e-01 -2.202829e+00 2.120599e+00 215 213 211
-1.890115e-01 -2.375215e+00 2.796073e+00 220 219 214
-2.081655e-01 -2.383545e+00 2.823764e+00 224 220 212
-3.143732e-01 -2.434275e+00 3.108490e+00 228 223 220
-3.337806e-02 -2.186774e+00 2.387197e+00 142 158 163
-8.296780e-02 -1.967864e+00 2.566525e+00 192 191 191
-3.766417e-01 -1.912052e+00 3.301853e+00 154 97 93
-1.253695e-01 -1.691387e+00 2.740636e+00 136 80 76
1.115419e-02 -1.583371e+00 2.480813e+00 185 176 158
-1.582507e-01 -1.666775e+00 2.897030e+00 66 65 55
-2.060358e-01 -1.688698e+00 3.019236e+00 83 80 72
-1.296992e-02 -3.218530e-01 8.774387e-01 198 200 197
-3.205925e+00 -1.905631e+00 6.098967e+00 152 147 135
-6.755585e-01 -5.234950e-01 2.543709e+00 35 36 32
-6.870978e-01 -5.222548e-01 2.575641e+00 181 176 166
-8.121543e-01 -6.114558e-01 2.858589e+00 218 204 194
-9.782059e+00 1.165565e+00 2.679767e+00 52 58 62
1.833894e-01 -2.227607e+00 1.925206e+00 214 205 202
-3.618393e-02 -2.357167e+00 2.408943e+00 214 206 201
1.174792e-01 -2.229965e+00 2.097964e+00 99 102 97
-3.587520e-01 -2.272062e+00 3.115803e+00 187 181 177
-4.635391e-02 -1.927468e+00 2.461928e+00 172 174 168
-5.555174e-02 -1.646386e+00 2.578373e+00 139 79 71
1.919772e-02 -1.559088e+00 2.515036e+00 74 74 75
-6.953555e-03 -1.489328e+00 2.614616e+00 76 77 74
-6.953555e-03 -1.489328e+00 2.614616e+00 76 77 74
-2.006552e-01 -1.584462e+00 3.028107e+00 86 87 82
