ply
format ascii 1.0
element vertex 721
property float x
property float y
property float z
property uchar diffuse_red
property uchar diffuse_green
property uchar diffuse_blue
end_header
-6.768162e+00 -1.154628e-02 -5.508383e+00 23 22 25
-5.805447e+01 5.786143e+01 -1.797967e+02 192 190 175
-1.346994e+01 2.057453e+01 -6.308214e+01 130 128 100
-4.341170e-01 -4.769373e-01 -3.298473e+00 214 232 217
-5.555293e+01 5.875322e+01 -1.751245e+02 187 187 172
-5.555293e+01 5.875322e+01 -1.751245e+02 187 187 172
-1.349215e+01 2.062118e+01 -6.323669e+01 130 128 100
-1.362320e+01 2.062253e+01 -6.291425e+01 253 242 218
-7.256432e+00 -1.976426e-01 -5.715155e+00 181 191 195
-2.271699e+00 -4.057348e-01 -3.974107e+00 149 164 172
-1.253834e+00 -3.542205e-01 -3.570439e+00 221 228 232
-6.951916e+00 1.055151e-01 -5.545782e+00 75 73 72
-1.611781e+00 -5.166236e-01 -3.750844e+00 212 209 200
-2.130188e+00 -4.077830e-01 -3.878919e+00 66 68 72
-4.619045e+01 5.758328e+01 -1.654370e+02 247 245 233
-6.872282e+00 -6.113940e-01 -5.662504e+00 204 208 212
-1.173303e+00 -6.414693e-01 -3.604844e+00 162 170 181
-7.056755e+00 1.003144e-01 -5.556458e+00 253 254 251
-4.875273e+01 5.979401e+01 -1.616698e+02 190 187 179
-5.580563e-01 -1.411567e-01 -3.195509e+00 221 230 231
-6.192339e+00 -1.732130e-01 -5.239206e+00 121 137 146
-1.421241e+00 3.480867e+01 -1.088020e+02 144 140 140
3.404435e-01 3.435078e-01 -3.196312e+00 239 243 243
1.107158e+01 3.036315e+01 -9.256906e+01 236 237 221
-1.501186e+00 -6.433870e-01 -3.783580e+00 8 9 11
-1.500891e+00 -6.438738e-01 -3.785216e+00 8 9 11
-1.002670e+00 -3.990183e-01 -3.521215e+00 16 17 17
-6.930900e+00 -5.066439e-01 -5.690875e+00 18 20 22
-7.257923e+00 -5.014026e-01 -5.806815e+00 249 250 252
-7.216980e+00 -1.776146e-02 -5.626061e+00 225 232 236
-3.950470e+01 4.984894e+01 -1.604967e+02 163 165 155
1.075262e+01 3.144769e+01 -8.948385e+01 182 180 175
-6.778502e+00 -2.602699e-01 -5.551296e+00 254 255 252
-6.872282e+00 -6.113940e-01 -5.662504e+00 204 208 212
-1.267808e+00 -6.732751e-01 -3.645630e+00 162 169 181
-2.471660e+00 -5.555525e-01 -4.231148e+00 67 68 68
-7.020117e+00 -5.832900e-01 -5.735510e+00 251 251 250
-6.752050e+00 -4.019523e-01 -5.607135e+00 43 44 46
-6.647070e+00 -8.286107e-02 -5.457616e+00 173 182 190
-7.297245e+00 -8.267718e-02 -5.706458e+00 26 26 30
-7.297245e+00 -8.267718e-02 -5.706458e+00 26 26 30
-6.838985e+00 9.356933e-02 -5.451313e+00 213 221 225
-5.161578e+00 -1.331604e+00 1.001121e+01 77 67 78
-4.513395e+00 6.667659e-01 -4.359352e+00 253 255 255
-5.356267e+01 5.923720e+01 -1.719929e+02 204 198 187
-7.401102e+00 -1.518755e-01 -5.745989e+00 252 251 249
-1.470338e+01 2.391522e+01 -6.251197e+01 94 90 81
-5.942096e+00 -5.198604e-01 -5.608448e+00 10 12 11
-1.204196e+00 -5.175093e-01 -3.640194e+00 166 177 183
-1.244852e+00 -5.911415e-01 -3.608924e+00 161 173 189
-1.274191e+00 -7.726877e-01 -3.683273e+00 158 167 175
-1.445051e+00 -5.559692e-01 -3.677080e+00 169 181 189
1.001987e+01 1.352095e+01 -4.531894e+01 250 247 236
9.961074e+00 1.411984e+01 -4.539031e+01 252 253 245
-1.202086e+00 -7.073554e-01 -3.625971e+00 125 129 126
-1.124473e+00 -5.931437e-01 -3.568395e+00 98 98 96
-1.349346e+00 -5.106750e-01 -3.620301e+00 132 137 135
-1.349346e+00 -5.106750e-01 -3.620301e+00 132 137 135
-1.077232e+00 -4.652795e-01 -3.528052e+00 237 238 240
-1.217464e+00 -4.687960e-01 -3.560790e+00 121 125 125
-7.331760e+00 -6.710366e-01 -5.790167e+00 129 122 116
1.164614e+01 1.125634e+01 -4.009178e+01 211 209 122
-1.057967e+00 -1.013970e+00 -3.694532e+00 46 49 55
-8.410230e-01 -5.740909e-01 -3.494646e+00 41 48 54
-7.043250e+00 -4.832286e-01 -5.730362e+00 205 206 208
-1.294652e+00 -2.343525e-01 -3.550790e+00 186 199 211
1.271052e+01 1.085634e+01 -3.865707e+01 111 113 61
1.135929e+01 1.176212e+01 -4.127208e+01 101 85 54
1.146448e+01 8.831103e+00 -3.541843e+01 184 183 127
9.672986e+00 9.577041e+00 -3.749200e+01 206 197 101
1.262317e+01 1.016440e+01 -3.746852e+01 113 110 57
1.162071e+01 1.262038e+01 -4.287439e+01 248 247 141
-2.060534e+00 -1.861090e-02 -3.655732e+00 187 207 212
-6.259189e+00 2.876786e-01 -5.074562e+00 168 190 206
9.494649e+00 1.174493e+01 -4.176753e+01 139 145 80
9.195162e+00 9.447022e+00 -3.735182e+01 232 224 138
9.410990e+00 9.413489e+00 -3.718355e+01 151 136 38
1.110609e+01 1.172432e+01 -4.139971e+01 152 140 72
9.860670e+00 1.313957e+01 -4.500215e+01 245 228 179
9.192665e+00 1.338895e+01 -4.541228e+01 217 214 147
9.258142e+00 1.540204e+01 -4.411091e+01 236 214 164
9.213164e+00 1.612703e+01 -4.367331e+01 253 251 230
1.264185e+01 9.904610e+00 -3.716039e+01 244 228 137
-1.135699e+00 3.497498e+01 -1.088464e+02 253 251 237
9.101682e+00 1.605066e+01 -4.358816e+01 132 121 89
-1.204196e+00 -5.175093e-01 -3.640194e+00 166 177 183
-7.029176e+00 -2.204907e-01 -5.599528e+00 179 190 200
2.768528e+01 2.518780e+01 -6.958199e+01 191 190 180
-4.803802e+00 1.000914e+00 -4.491642e+00 166 202 238
1.636989e+01 9.945811e+00 -3.527642e+01 179 186 105
-1.272653e+00 -9.601579e-01 -3.775763e+00 221 227 228
-2.384918e+00 8.917691e-01 -3.811397e+00 215 234 251
1.534203e+01 7.909364e+00 -3.197308e+01 151 151 73
1.445957e+01 3.008286e+01 -8.595265e+01 199 196 183
1.453458e+01 3.020940e+01 -8.634091e+01 199 196 183
-1.405901e+00 -7.039906e-01 -3.706848e+00 159 168 175
-1.337875e+00 -6.577656e-01 -3.662746e+00 127 128 127
-7.156568e+00 -3.292914e-01 -5.699609e+00 180 189 193
-7.288975e+00 -2.933529e-01 -5.769233e+00 27 28 28
-7.162089e+00 7.822312e-02 -5.609117e+00 19 19 25
1.648097e+01 9.291293e+00 -3.398938e+01 124 116 69
1.317646e+01 1.060251e+01 -3.804640e+01 204 210 124
-1.267808e+00 -6.732751e-01 -3.645630e+00 162 169 181
-1.173303e+00 -6.414693e-01 -3.604844e+00 162 170 181
5.719819e-01 -6.142881e-01 -3.778919e+00 45 49 51
-7.494675e+00 -5.140703e-01 -5.827382e+00 138 136 131
-1.335379e+00 -5.855488e-01 -3.635269e+00 166 176 185
-8.084568e+00 -2.652781e-02 -5.951498e+00 107 116 118
-7.923367e+00 9.921706e-03 -5.822710e+00 72 76 75
-7.056755e+00 1.003144e-01 -5.556458e+00 253 254 251
1.449546e+01 7.650240e+00 -3.213187e+01 202 206 121
1.379680e+01 8.149848e+00 -3.328335e+01 122 131 88
1.454519e+01 8.902377e+00 -3.418201e+01 192 187 128
1.512517e+01 9.021773e+00 -3.424919e+01 158 174 85
1.618375e+01 9.153701e+00 -3.399524e+01 218 215 141
1.572919e+01 9.800290e+00 -3.549354e+01 119 127 78
1.128266e+01 1.069681e+01 -3.888267e+01 100 106 57
1.672189e+01 1.001161e+01 -3.506544e+01 200 198 118
1.672189e+01 1.001161e+01 -3.506544e+01 200 198 118
1.595427e+01 1.099706e+01 -3.757734e+01 188 186 116
-6.070755e+00 -1.025191e+00 -4.980011e+00 198 176 165
-2.482833e+00 -5.567832e-01 -4.187879e+00 67 68 68
-7.205501e+00 -3.681579e-01 -5.725720e+00 174 183 187
1.080768e-02 7.064654e-02 -3.138590e+00 187 171 189
1.477311e+01 7.695737e+00 -3.212020e+01 113 118 63
1.477311e+01 7.695737e+00 -3.212020e+01 113 118 63
1.613679e+01 8.476662e+00 -3.298696e+01 217 211 138
1.658545e+01 8.857664e+00 -3.379293e+01 77 63 54
1.583292e+01 8.938461e+00 -3.387676e+01 230 219 164
1.667665e+01 9.065400e+00 -3.357355e+01 89 91 57
1.606595e+01 9.498342e+00 -3.489292e+01 228 219 132
-3.118829e+01 4.745028e+01 -1.396765e+02 200 196 185
-4.244363e+00 6.704187e-01 -4.264914e+00 80 105 134
1.541995e+01 7.552648e+00 -3.163924e+01 213 212 138
1.450779e+01 9.111732e+00 -3.461560e+01 211 207 135
1.496752e+01 9.190715e+00 -3.466954e+01 229 223 139
1.503143e+01 1.052973e+01 -3.701900e+01 232 236 138
1.029513e+01 1.169354e+01 -4.125575e+01 168 189 85
1.607520e+01 1.082788e+01 -3.735725e+01 218 219 115
1.689525e+01 1.080060e+01 -3.687756e+01 227 218 159
-4.736544e+00 2.112426e+00 -4.739378e+00 177 202 218
-9.487089e-01 -8.270413e-01 -3.622871e+00 20 19 27
-1.492288e+00 -8.327918e-01 -3.807301e+00 250 248 236
-6.410201e+00 -4.067399e-01 -5.417700e+00 105 106 106
-9.081853e-01 -4.463867e-01 -3.513020e+00 27 31 47
-1.088420e+00 -2.599422e-01 -3.500035e+00 28 29 36
-2.422959e+00 9.382167e-03 -3.799159e+00 231 240 240
1.294413e+01 8.473194e+00 -3.435459e+01 231 223 152
1.281180e+01 8.517252e+00 -3.449472e+01 212 208 138
1.262317e+01 1.016440e+01 -3.746852e+01 113 110 57
1.589462e+01 9.987803e+00 -3.548831e+01 220 215 138
1.644726e+01 1.008593e+01 -3.545732e+01 137 142 73
1.644726e+01 1.008593e+01 -3.545732e+01 137 142 73
1.482633e+01 1.079668e+01 -3.779395e+01 226 213 139
1.477263e+01 1.101814e+01 -3.808017e+01 112 121 60
1.626363e+01 1.098339e+01 -3.750019e+01 161 156 89
1.378569e+01 1.179831e+01 -4.007174e+01 110 105 63
1.162071e+01 1.262038e+01 -4.287439e+01 248 247 141
1.215096e+01 1.324353e+01 -4.456422e+01 201 200 123
1.004934e+01 1.391463e+01 -4.521549e+01 255 255 251
-1.379288e+01 2.218827e+01 -6.207331e+01 255 253 246
-1.062527e+00 -9.561777e-01 -3.687427e+00 132 139 146
-1.062527e+00 -9.561777e-01 -3.687427e+00 132 139 146
-6.962827e+00 -6.018145e-01 -5.716320e+00 208 213 211
-7.125830e+00 -5.734600e-01 -5.743242e+00 223 229 225
-4.660078e+00 -8.536458e-01 3.784264e+00 158 157 150
9.708054e+00 9.872408e+00 -3.806101e+01 152 127 66
9.471014e+00 1.137754e+01 -4.126490e+01 243 242 130
9.205932e+00 1.180721e+01 -4.215462e+01 233 232 131
1.317334e+01 1.113777e+01 -3.901381e+01 220 225 135
1.141540e+01 1.185176e+01 -4.114989e+01 236 223 101
1.133543e+01 1.205108e+01 -4.168836e+01 238 233 130
2.847061e+01 2.248002e+01 -7.223040e+01 159 166 131
-1.468075e+00 -8.887612e-01 -3.809794e+00 146 144 144
-1.609623e+00 -7.182034e-01 -3.821847e+00 199 197 184
-9.263747e-01 -4.442441e-01 -3.542465e+00 67 76 86
-7.355176e+00 -1.238385e-01 -5.789296e+00 136 131 111
-7.246627e+00 5.925345e-02 -5.682747e+00 203 196 170
-8.403868e+00 1.537276e+00 -6.063369e+00 249 254 251
-3.005243e+00 1.325425e+00 -4.012833e+00 190 204 209
-4.896315e+00 2.059771e+00 -4.795260e+00 96 120 135
9.548273e+00 1.449440e+01 -4.440186e+01 255 255 223
-1.472671e+01 2.279594e+01 -6.360513e+01 95 90 84
-3.144978e+00 1.938772e-01 -2.702874e+00 189 210 224
-3.841856e+00 3.534623e-01 -4.219148e+00 194 210 222
-5.783013e+00 7.082010e-01 -5.238973e+00 164 187 211
-7.016027e+00 -2.207637e-01 -5.516971e+00 179 190 200
-7.000701e+00 1.013719e+00 -5.323239e+00 191 214 237
3.214246e+01 2.214415e+01 -6.498120e+01 234 232 219
-3.238702e-01 -4.989100e-01 -3.299451e+00 171 183 190
-3.226637e+00 1.042037e+00 -3.702540e+00 255 255 255
3.494826e+01 2.122332e+01 -6.333677e+01 135 139 138
1.634553e+01 9.053089e+00 -3.457939e+01 179 170 109
-3.521358e+01 4.641192e+01 -1.476290e+02 150 152 147
-4.690123e+01 5.288825e+01 -1.656195e+02 180 177 167
-1.175095e+00 -8.733144e-01 -3.708619e+00 11 10 11
-6.396298e+00 -2.532518e-01 -5.364954e+00 65 69 68
-1.375324e+00 -2.909196e-01 -3.609720e+00 8 12 11
-1.166641e+00 -2.770231e-01 -3.559673e+00 14 14 19
1.642023e+01 8.812803e+00 -3.323054e+01 113 109 62
1.745483e+01 1.003634e+01 -3.522739e+01 211 202 139
-3.336060e+00 2.029371e+00 -4.713305e+00 105 128 167
3.392289e+01 1.889009e+01 -5.696382e+01 221 219 205
3.593014e+01 2.077356e+01 -6.276030e+01 135 137 138
3.460823e+01 2.146476e+01 -6.540951e+01 219 215 203
-3.789826e+01 4.943169e+01 -1.532626e+02 246 243 232
3.326315e+01 2.225441e+01 -6.573698e+01 233 231 218
3.416228e+01 2.259200e+01 -6.438917e+01 214 213 195
3.141141e+01 2.417271e+01 -6.489092e+01 162 158 155
3.257542e+01 2.395200e+01 -6.387943e+01 148 152 151
-1.047023e+00 -9.188125e-01 -3.649272e+00 221 225 223
-1.093845e+00 -7.945051e-01 -3.697293e+00 151 158 164
-1.013534e+00 -6.670160e-01 -3.575767e+00 209 215 219
-7.012939e+00 -2.097033e-01 -5.584711e+00 182 189 198
-2.075298e+00 -3.340206e-01 -3.848010e+00 140 147 151
-7.297272e+00 7.054996e-02 -5.653426e+00 254 255 254
-7.299538e+00 7.188774e-02 -5.663860e+00 254 255 254
-3.018609e+00 1.281755e+00 -4.039758e+00 75 92 113
1.776860e+01 7.252470e+00 -2.979273e+01 198 181 121
-1.422340e+00 -3.782052e-01 -3.667867e+00 194 204 211
-6.537019e+00 1.028062e-01 -5.291096e+00 74 80 83
1.684437e+01 7.414620e+00 -3.027513e+01 128 134 78
1.687954e+01 7.430071e+00 -3.033468e+01 128 134 78
1.464418e+01 8.407721e+00 -3.312091e+01 166 164 90
1.657498e+01 8.807769e+00 -3.278927e+01 188 194 93
1.051965e+01 1.018219e+01 -3.796844e+01 192 210 96
1.845491e+01 8.953339e+00 -3.216964e+01 202 190 120
9.670634e+00 1.404337e+01 -4.577877e+01 105 97 74
3.131747e+01 1.642239e+01 -5.207095e+01 183 189 102
-3.459329e+01 4.833969e+01 -1.525040e+02 229 226 211
-5.922774e+00 -2.433021e+00 4.378662e-01 132 128 120
-1.124041e+00 -9.742059e-01 -3.721391e+00 140 151 159
-8.424570e-01 -8.226018e-01 -3.559808e+00 31 32 42
-1.330037e+00 -5.853398e-01 -3.645513e+00 166 176 185
-1.272139e+00 -5.076549e-01 -3.598756e+00 168 178 187
-1.272139e+00 -5.076549e-01 -3.598756e+00 168 178 187
-1.581020e+00 -3.478026e-01 -3.681811e+00 159 159 156
-1.581020e+00 -3.478026e-01 -3.681811e+00 159 159 156
1.990626e-01 9.568002e-02 -3.125106e+00 255 255 252
-4.516431e+00 7.410846e-01 -4.364792e+00 244 250 251
-3.362881e+00 9.416534e-01 -3.570480e+00 179 193 201
1.626280e+01 6.454827e+00 -2.847896e+01 153 166 102
1.556382e+01 6.593827e+00 -2.914247e+01 142 140 90
1.651216e+01 7.023960e+00 -2.969904e+01 211 208 147
1.616345e+01 7.744140e+00 -3.129228e+01 202 199 120
1.322929e+01 8.779897e+00 -3.458890e+01 215 208 126
1.698495e+01 8.292712e+00 -3.200986e+01 198 204 108
-4.073482e+00 2.455453e+00 -7.287244e+00 190 193 154
1.135515e+01 1.134460e+01 -4.047848e+01 199 215 110
-5.335532e+01 4.400324e+01 -1.583466e+02 124 121 75
2.106795e+01 1.134370e+01 -3.650963e+01 199 199 111
3.422522e+01 1.840644e+01 -5.748735e+01 81 88 68
3.564900e+01 2.007966e+01 -6.262948e+01 212 213 192
-2.848791e+01 4.550233e+01 -1.352365e+02 201 199 188
9.189980e+00 1.619090e+01 -4.432657e+01 119 110 104
-2.927072e+01 4.906779e+01 -1.345870e+02 237 235 222
-7.096985e+00 -1.688608e-01 -5.584402e+00 182 193 197
-6.680900e+00 -1.010049e-01 -5.436170e+00 205 214 220
-1.294975e+00 -2.352928e-01 -3.548627e+00 186 199 211
-6.376925e+00 8.544412e-01 -4.955444e+00 79 101 133
1.413916e+01 7.069264e+00 -3.085007e+01 210 212 133
1.264383e+01 7.763427e+00 -3.317579e+01 197 197 122
1.750844e+01 7.326580e+00 -3.005212e+01 133 131 62
1.676652e+01 7.769440e+00 -3.116011e+01 115 110 70
1.662431e+01 8.120130e+00 -3.186710e+01 106 111 70
-2.534251e+01 1.750311e+01 -6.802319e+01 86 92 56
1.808038e+01 8.324008e+00 -3.155454e+01 210 206 111
1.702995e+01 8.630324e+00 -3.242484e+01 86 74 43
1.825935e+01 8.511899e+00 -3.165903e+01 112 101 44
1.799526e+01 8.577288e+00 -3.163664e+01 194 198 107
1.799526e+01 8.577288e+00 -3.163664e+01 194 198 107
1.710983e+01 8.883420e+00 -3.281514e+01 176 168 93
1.323068e+01 9.941729e+00 -3.721277e+01 234 223 144
1.919277e+01 8.979097e+00 -3.198993e+01 187 177 99
-2.290466e+01 1.795304e+01 -6.575709e+01 72 73 53
-7.915156e+01 6.737370e+01 -2.293311e+02 182 178 166
-4.817607e+00 2.109550e+00 -4.759418e+00 176 203 221
3.512080e+01 1.922112e+01 -5.928888e+01 220 224 202
-1.486869e+00 -1.200441e+00 -3.817933e+00 93 95 93
-2.498117e+00 -1.001252e+00 -4.801461e+00 84 83 78
-6.989698e+00 -5.087964e-01 -5.759662e+00 19 25 21
-1.363413e+00 -3.415452e-01 -3.629628e+00 24 30 45
1.496976e+01 6.591039e+00 -2.941677e+01 168 165 115
1.772742e+01 7.530493e+00 -2.986036e+01 146 150 91
1.523950e+01 8.062316e+00 -3.207117e+01 118 115 73
-2.483782e+01 1.701547e+01 -6.703622e+01 193 190 135
-3.104007e+01 1.929359e+01 -7.548658e+01 246 210 161
1.664286e+01 8.516403e+00 -3.256181e+01 187 180 110
1.836433e+01 8.238723e+00 -3.127343e+01 193 193 95
-3.212133e+01 1.960178e+01 -7.430717e+01 89 87 45
1.775131e+01 8.737726e+00 -3.195368e+01 204 207 124
1.784385e+01 8.779461e+00 -3.211100e+01 204 207 124
1.675010e+01 9.107610e+00 -3.332420e+01 211 216 127
-2.145769e+01 1.703530e+01 -6.282201e+01 138 128 103
1.861531e+01 9.351998e+00 -3.314971e+01 178 177 99
1.911684e+01 9.158070e+00 -3.208500e+01 106 87 41
1.493845e+01 1.047572e+01 -3.682009e+01 232 236 138
1.864808e+01 1.057362e+01 -3.525440e+01 211 194 124
1.810449e+01 1.108942e+01 -3.654903e+01 187 149 75
-4.712454e+00 2.057933e+00 -4.726304e+00 60 73 86
-1.480709e+01 2.313660e+01 -6.406932e+01 99 92 84
-1.477067e+01 2.361256e+01 -6.303708e+01 109 101 86
-7.225715e+00 -1.968217e+00 -1.590000e+00 168 169 163
-6.841457e+00 -8.993405e-01 -5.661340e+00 118 118 116
-7.489798e+00 -5.174509e-01 -5.804241e+00 144 142 137
-6.788875e+00 -4.489757e-01 -5.648739e+00 53 51 73
-1.038597e+00 -5.905825e-01 -3.556088e+00 99 102 116
-6.388754e+00 -8.739263e-02 -5.324699e+00 75 81 81
4.027203e-01 8.625395e-02 -3.260654e+00 254 254 253
3.570782e-01 3.565344e-01 -3.176200e+00 107 107 142
-4.551638e+00 6.931611e-01 -4.374591e+00 150 158 182
1.536986e+01 6.267655e+00 -2.837826e+01 224 229 231
1.593361e+01 6.223191e+00 -2.807904e+01 218 214 212
1.660874e+01 6.151783e+00 -2.748512e+01 134 124 113
1.645657e+01 6.209516e+00 -2.774715e+01 114 99 100
-2.995738e+00 1.228305e+00 -3.988960e+00 62 76 126
1.454222e+01 8.106174e+00 -3.288515e+01 211 206 134
1.662362e+01 7.844945e+00 -3.119241e+01 190 186 102
9.744293e+00 9.218819e+00 -3.696871e+01 230 226 126
1.747384e+01 8.011256e+00 -3.093978e+01 129 129 72
1.249037e+01 9.248843e+00 -3.621502e+01 218 218 111
1.709016e+01 8.319820e+00 -3.186481e+01 154 154 84
1.335472e+01 9.093041e+00 -3.508372e+01 219 214 136
1.027159e+01 9.649221e+00 -3.738610e+01 210 214 130
1.906658e+01 8.336386e+00 -3.102568e+01 148 140 71
1.134000e+01 1.000650e+01 -3.795614e+01 205 187 133
1.721740e+01 8.743519e+00 -3.231614e+01 206 211 120
1.658108e+01 9.353893e+00 -3.381286e+01 174 185 95
1.125683e+01 1.106776e+01 -4.011001e+01 223 215 130
1.835101e+01 9.496666e+00 -3.324313e+01 177 170 101
1.135335e+01 1.138141e+01 -4.023908e+01 211 214 121
-5.533913e+01 4.606529e+01 -1.648394e+02 87 87 37
-6.436255e+01 5.191432e+01 -1.822408e+02 108 121 69
1.793596e+01 1.082336e+01 -3.630349e+01 219 188 97
-1.357218e+01 2.011306e+01 -6.317303e+01 255 249 246
-5.501583e+00 -2.680458e+00 1.453418e+00 83 85 84
-5.588905e+00 -2.569384e+00 1.004922e+00 173 170 158
-2.393900e+00 -4.585320e-01 -3.985836e+00 48 53 56
-2.415747e+00 -1.151662e-02 -3.805519e+00 219 230 224
-1.378869e+00 1.260921e+00 -4.698789e+00 86 89 110
1.462147e+01 6.926287e+00 -2.997265e+01 128 143 69
1.548945e+01 7.384600e+00 -3.077593e+01 104 109 52
1.388894e+01 8.007677e+00 -3.293158e+01 190 185 130
1.381161e+01 8.086135e+00 -3.316709e+01 110 118 65
1.419414e+01 8.007225e+00 -3.263651e+01 112 103 46
1.606585e+01 7.841065e+00 -3.141103e+01 155 143 62
1.217186e+01 8.653645e+00 -3.484004e+01 221 215 135
-3.039363e+01 1.790370e+01 -7.207306e+01 122 104 74
1.731861e+01 7.914538e+00 -3.120377e+01 220 202 139
9.920783e+00 9.185230e+00 -3.641577e+01 176 158 108
1.068522e+01 9.330912e+00 -3.676722e+01 235 223 147
1.031686e+01 9.390378e+00 -3.685611e+01 234 229 149
1.861962e+01 7.997431e+00 -3.052057e+01 140 141 64
-3.177187e+01 1.893570e+01 -7.365722e+01 233 242 175
1.785797e+01 8.176493e+00 -3.100246e+01 209 201 111
1.755045e+01 8.423514e+00 -3.171023e+01 217 216 140
-3.170349e+01 1.951262e+01 -7.454210e+01 61 66 25
1.638746e+01 9.144504e+00 -3.382818e+01 92 79 50
1.621342e+01 9.218137e+00 -3.411723e+01 221 216 148
-2.333492e+01 1.750604e+01 -6.526843e+01 189 187 140
-2.333492e+01 1.750604e+01 -6.526843e+01 189 187 140
-2.369500e+01 1.788702e+01 -6.609462e+01 72 67 41
1.145323e+01 1.070158e+01 -3.903895e+01 111 112 70
1.259710e+01 1.056926e+01 -3.826901e+01 227 233 146
9.500468e+00 1.139928e+01 -4.136077e+01 243 242 130
-2.220560e+01 1.801518e+01 -6.490387e+01 55 55 29
1.901510e+01 9.313873e+00 -3.255021e+01 209 204 139
-2.129845e+01 1.800713e+01 -6.464099e+01 250 239 167
-2.129845e+01 1.800713e+01 -6.464099e+01 250 239 167
-6.078554e+01 4.656381e+01 -1.682150e+02 194 173 112
1.807634e+01 1.002221e+01 -3.434012e+01 196 199 120
1.810291e+01 1.029222e+01 -3.487439e+01 148 141 66
1.797439e+01 1.022685e+01 -3.464280e+01 148 141 66
1.965114e+01 1.016965e+01 -3.396841e+01 134 122 52
1.557445e+01 1.154057e+01 -3.892035e+01 222 214 134
1.557445e+01 1.154057e+01 -3.892035e+01 222 214 134
-6.585337e+01 5.266330e+01 -1.832019e+02 214 210 184
-5.318229e+01 4.746578e+01 -1.646144e+02 234 229 198
1.966761e+01 1.071305e+01 -3.530187e+01 154 146 81
-4.665217e+00 2.037635e+00 -4.705542e+00 113 130 140
-5.657710e+00 -2.664902e+00 1.404532e+00 71 80 41
-5.675040e+00 -2.571743e+00 1.020343e+00 94 95 90
-8.875125e+00 -1.185447e+00 -4.870373e+00 72 75 73
-1.442676e+00 -9.098955e-01 -3.806090e+00 139 137 137
-1.601690e+00 -5.084513e-01 -3.758641e+00 231 225 212
-1.450934e+00 -4.821599e-01 -3.690156e+00 108 122 133
-9.089064e-01 -4.847842e-01 -3.481857e+00 183 196 204
-9.237764e-01 -4.429543e-01 -3.548372e+00 67 76 86
-4.700121e+00 1.911842e-01 -4.544980e+00 33 39 68
-6.065240e-03 9.430253e-02 -3.094236e+00 255 245 114
1.432958e+01 6.524718e+00 -2.929897e+01 161 154 130
1.590377e+01 6.193785e+00 -2.766681e+01 154 148 115
-3.027572e+01 1.625108e+01 -6.910579e+01 197 187 132
1.600965e+01 7.454321e+00 -3.065126e+01 152 160 75
1.214767e+01 8.283816e+00 -3.431612e+01 157 150 79
1.296857e+01 8.622008e+00 -3.458714e+01 101 91 52
-3.055411e+01 1.863709e+01 -7.450428e+01 242 233 177
1.225570e+01 8.958668e+00 -3.549204e+01 103 99 41
1.225570e+01 8.958668e+00 -3.549204e+01 103 99 41
-3.076448e+01 1.904420e+01 -7.496202e+01 254 227 175
-2.318827e+01 1.599951e+01 -6.279294e+01 219 214 165
-2.318827e+01 1.599951e+01 -6.279294e+01 219 214 165
1.495773e+01 8.738401e+00 -3.370869e+01 160 165 78
-2.468025e+01 1.741920e+01 -6.700076e+01 226 230 172
1.822982e+01 8.418727e+00 -3.152345e+01 96 87 30
-2.206910e+01 1.638510e+01 -6.267511e+01 73 76 37
-2.206910e+01 1.638510e+01 -6.267511e+01 73 76 37
1.683215e+01 8.769604e+00 -3.287504e+01 111 110 45
1.285637e+01 9.727601e+00 -3.673830e+01 234 227 111
1.014645e+01 1.025623e+01 -3.882118e+01 92 83 41
-2.233704e+01 1.689456e+01 -6.376737e+01 71 69 31
-2.407492e+01 1.783100e+01 -6.655793e+01 66 59 27
1.206546e+01 1.037745e+01 -3.820522e+01 152 138 83
1.206546e+01 1.037745e+01 -3.820522e+01 152 138 83
-2.290649e+01 1.777382e+01 -6.551221e+01 55 63 26
1.247017e+01 1.054944e+01 -3.831002e+01 117 117 49
1.247017e+01 1.054944e+01 -3.831002e+01 117 117 49
-2.090122e+01 1.716348e+01 -6.274953e+01 233 243 146
1.459262e+01 1.020192e+01 -3.666740e+01 141 143 55
-2.149020e+01 1.771628e+01 -6.402882e+01 244 251 184
-2.173914e+01 1.825726e+01 -6.494534e+01 224 232 179
-5.045624e+01 4.396618e+01 -1.573610e+02 216 235 160
-6.405795e+01 4.950378e+01 -1.767848e+02 80 100 26
-5.560397e+01 4.612505e+01 -1.643056e+02 212 241 125
-2.053556e+01 1.940341e+01 -6.799393e+01 128 123 71
-5.905858e+01 4.939214e+01 -1.745033e+02 77 89 21
1.681830e+01 1.095443e+01 -3.715057e+01 223 212 149
-5.028494e+01 4.594872e+01 -1.623035e+02 251 245 231
1.482432e+01 1.151498e+01 -3.910806e+01 141 145 57
2.860765e+01 2.252383e+01 -7.215074e+01 244 248 220
-1.368149e+01 2.229500e+01 -6.199957e+01 234 227 215
-1.368149e+01 2.229500e+01 -6.199957e+01 234 227 215
-1.496974e+01 2.364628e+01 -6.382360e+01 93 83 82
-2.190915e+00 -7.651032e-01 -3.783172e+00 25 25 28
-2.249949e+00 -2.972789e-01 -3.815897e+00 132 147 157
-6.629863e+00 1.474243e+00 -5.447906e+00 93 113 124
-6.629863e+00 1.474243e+00 -5.447906e+00 93 113 124
1.105090e+01 1.075630e+01 -3.822576e+01 212 212 127
-6.128667e-01 -1.068848e-02 -3.189398e+00 255 255 253
-1.376859e+00 -8.166212e-01 -3.747921e+00 10 11 11
-9.987616e-01 -7.864553e-01 -3.631116e+00 13 13 12
-1.250406e+00 -5.924133e-01 -3.573357e+00 161 173 189
-1.504622e+00 -4.335237e-01 -3.710224e+00 10 10 10
1.256331e+01 8.738831e+00 -3.482020e+01 210 207 108
-3.507159e+00 -8.946153e-01 -5.237047e+00 105 103 85
-1.614128e+00 -5.121858e-01 -3.731539e+00 212 209 200
-6.699346e+00 -1.976034e-01 -5.548543e+00 21 21 20
-4.493780e+00 -2.751244e+00 1.853720e+00 79 75 79
-1.407140e+00 -7.039855e-01 -3.697508e+00 159 168 175
-7.215095e+00 1.637154e-01 -5.579754e+00 183 188 191
-6.686109e+00 1.380428e+00 -5.281693e+00 83 101 116
1.459390e+01 6.954010e+00 -3.012539e+01 156 155 101
-4.811521e+00 -2.539731e+00 9.767114e-01 108 110 95
-4.811521e+00 -2.539731e+00 9.767114e-01 108 110 95
-1.484681e+00 -8.528514e-01 -3.790131e+00 226 226 218
-1.408483e+00 -6.180452e-01 -3.655664e+00 167 176 181
-8.411867e-01 -5.711646e-01 -3.493493e+00 41 48 54
-1.161110e+00 -5.283012e-01 -3.584985e+00 166 173 186
-6.735529e+00 1.336377e+00 -5.223461e+00 183 211 234
1.076377e+01 8.205309e+00 -3.449177e+01 239 234 157
1.484568e+01 7.732457e+00 -3.187050e+01 197 196 106
9.469742e+00 8.903354e+00 -3.596158e+01 228 228 118
-6.687213e+00 -9.949913e-02 -5.464653e+00 205 214 220
-1.068686e+00 -2.987362e-01 -3.480221e+00 193 208 217
1.350731e+01 6.007660e+00 -2.848281e+01 212 216 214
1.311069e+01 6.085128e+00 -2.883401e+01 211 213 210
1.260666e+01 6.772821e+00 -3.069556e+01 230 231 228
1.005346e+01 8.288207e+00 -3.513859e+01 221 215 133
8.970094e+00 8.929076e+00 -3.625351e+01 224 215 119
8.970094e+00 8.929076e+00 -3.625351e+01 224 215 119
1.403823e+01 8.727792e+00 -3.401960e+01 133 141 71
1.114015e+01 1.038624e+01 -3.858297e+01 227 211 148
1.837357e+01 9.023698e+00 -3.254623e+01 123 130 57
1.163620e+01 1.068663e+01 -3.894447e+01 213 224 126
-7.174802e+00 -8.526413e-01 -5.864499e+00 20 25 28
-1.195329e+00 -7.706771e-01 -3.622822e+00 151 159 166
1.300565e+01 6.133110e+00 -2.910930e+01 207 215 209
-2.997628e+00 1.241794e+00 -3.997874e+00 62 76 122
1.223663e+01 7.896438e+00 -3.357431e+01 220 212 151
1.175638e+01 7.888428e+00 -3.353750e+01 225 223 146
1.053699e+01 8.488558e+00 -3.528819e+01 230 220 159
1.321592e+01 8.486337e+00 -3.421375e+01 117 118 62
6.809238e+00 1.030020e+01 -4.011447e+01 218 216 130
6.809238e+00 1.030020e+01 -4.011447e+01 218 216 130
1.458405e+01 9.141219e+00 -3.479441e+01 211 207 135
1.449987e+01 9.285673e+00 -3.497522e+01 166 169 82
1.449987e+01 9.285673e+00 -3.497522e+01 166 169 82
1.314086e+01 9.766330e+00 -3.643631e+01 158 146 86
-1.038347e+00 -5.894652e-01 -3.556797e+00 99 102 116
-1.214885e+01 -1.190592e-02 -1.016082e+01 57 67 77
-1.405147e+00 -4.950139e-01 -3.632690e+00 172 180 184
-7.199152e+00 -2.505679e-01 -5.674940e+00 211 212 217
6.474652e-01 -2.696876e-01 -3.297132e+00 156 97 87
6.771628e+00 1.463607e+00 -1.281846e+01 53 50 57
-4.551021e+00 6.927782e-01 -4.359928e+00 150 158 182
-7.982837e+00 1.443856e+00 -5.769054e+00 55 81 110
1.244252e+01 6.865281e+00 -3.120640e+01 233 235 235
1.175170e+01 7.204664e+00 -3.188547e+01 130 115 82
1.121029e+01 7.410038e+00 -3.245243e+01 252 226 180
9.834240e+00 8.384255e+00 -3.526883e+01 222 216 120
1.163207e+01 8.317248e+00 -3.421534e+01 234 221 152
7.373243e+00 9.253763e+00 -3.746777e+01 232 237 145
1.413097e+01 8.440305e+00 -3.371110e+01 220 221 141
1.173809e+01 9.703737e+00 -3.695054e+01 147 155 79
9.588214e+00 1.021717e+01 -3.883126e+01 227 229 110
9.588214e+00 1.021717e+01 -3.883126e+01 227 229 110
1.899207e+01 8.491331e+00 -3.134003e+01 204 187 109
-9.380376e+00 1.537050e+01 -5.767831e+01 117 128 121
8.200690e+00 1.096708e+01 -4.059645e+01 144 136 73
9.574941e+00 1.089697e+01 -4.001811e+01 189 190 106
1.571702e+01 9.732952e+00 -3.514721e+01 122 126 69
2.831912e+01 2.266927e+01 -7.223109e+01 249 250 244
2.831912e+01 2.266927e+01 -7.223109e+01 249 250 244
-6.820935e-01 -9.103177e-01 -3.518169e+00 79 80 75
-1.096400e+00 -4.348554e-01 -3.532174e+00 161 158 165
-7.000065e+00 4.718743e-02 -5.564560e+00 251 253 251
-1.363851e+00 1.232419e+00 -4.689282e+00 203 211 214
1.291141e+01 6.582020e+00 -2.986140e+01 227 229 231
1.201084e+01 7.288618e+00 -3.205510e+01 135 125 87
9.374608e+00 8.363931e+00 -3.523928e+01 218 226 120
9.374608e+00 8.363931e+00 -3.523928e+01 218 226 120
1.681449e+01 7.511934e+00 -3.063640e+01 211 195 129
1.429278e+01 8.052811e+00 -3.284432e+01 112 103 46
1.429278e+01 8.052811e+00 -3.284432e+01 112 103 46
9.032269e+00 9.221785e+00 -3.684861e+01 152 141 84
9.032269e+00 9.221785e+00 -3.684861e+01 152 141 84
1.294353e+01 8.897074e+00 -3.514484e+01 224 218 120
9.405230e+00 9.406785e+00 -3.715772e+01 151 136 38
1.724278e+01 8.190677e+00 -3.157634e+01 201 194 122
9.460251e+00 9.561698e+00 -3.730620e+01 223 231 125
6.980764e+00 1.034524e+01 -3.987177e+01 142 162 64
9.923448e+00 1.003612e+01 -3.832775e+01 183 161 103
6.818304e+00 1.065922e+01 -4.054391e+01 237 220 152
9.137780e+00 1.029372e+01 -3.887272e+01 222 228 114
6.569719e+00 1.093151e+01 -4.142523e+01 251 251 142
1.368573e+01 9.740223e+00 -3.625825e+01 208 186 118
8.118622e+00 1.067266e+01 -3.999881e+01 220 221 115
8.118622e+00 1.067266e+01 -3.999881e+01 220 221 115
9.950836e+00 1.062780e+01 -3.904397e+01 207 216 107
-1.469687e+00 -8.244911e-01 -3.807211e+00 98 92 111
-6.909519e+00 -6.222976e-01 -5.675114e+00 213 215 219
-1.589648e+00 -7.336230e-01 -3.783214e+00 149 149 140
-6.795049e+00 -5.304327e-01 -5.638243e+00 253 254 255
-1.552187e+00 -4.789836e-01 -3.770595e+00 156 151 144
-1.444039e+00 -2.908529e-01 -3.673771e+00 152 139 131
-6.953692e+00 2.357682e-03 -5.528377e+00 157 168 177
-7.246864e+00 1.005230e-01 -5.673702e+00 103 96 82
-6.225645e+00 1.229216e+00 -5.014385e+00 185 200 214
1.228587e+01 6.141187e+00 -2.972991e+01 144 126 113
1.300251e+01 6.724875e+00 -3.025115e+01 167 165 129
1.240863e+01 7.118506e+00 -3.167348e+01 112 111 74
7.838660e+00 8.692430e+00 -3.652654e+01 156 150 86
1.360114e+01 8.073305e+00 -3.338669e+01 218 219 148
7.769745e+00 8.854954e+00 -3.660739e+01 114 112 49
6.865537e+00 9.184569e+00 -3.784033e+01 96 89 48
1.150038e+01 8.706720e+00 -3.490331e+01 142 144 73
7.000477e+00 9.738878e+00 -3.881091e+01 132 137 60
1.164562e+01 9.505689e+00 -3.662788e+01 239 234 159
1.164562e+01 9.505689e+00 -3.662788e+01 239 234 159
9.209971e+00 1.020732e+01 -3.868157e+01 219 224 128
-8.942082e+00 1.461813e+01 -5.593021e+01 198 211 180
1.840757e+01 8.478609e+00 -3.138827e+01 159 154 74
1.264601e+01 9.778051e+00 -3.671471e+01 233 227 122
7.308658e+00 1.081469e+01 -4.062237e+01 112 110 40
7.483793e+00 1.097410e+01 -4.100894e+01 224 216 137
1.641280e+01 9.596836e+00 -3.479856e+01 149 149 86
1.189293e+01 1.059492e+01 -3.852753e+01 136 132 60
1.248904e+01 1.089499e+01 -3.922816e+01 241 239 154
-1.393211e+01 2.129355e+01 -6.252038e+01 245 238 222
-2.087515e+00 -7.505723e-01 -4.191010e+00 24 28 33
-4.410654e+00 1.786355e+00 -5.669111e+00 50 68 87
-6.156484e+00 -1.269604e+00 -4.636893e+00 113 116 114
-9.203113e+00 6.891471e-01 -6.430533e+00 150 190 224
-1.371900e+00 -8.204171e-01 -3.771128e+00 13 15 14
-9.951193e-01 -7.868514e-01 -3.642533e+00 13 13 12
-2.510744e+00 -3.940931e-01 -3.969906e+00 154 167 177
-1.511348e+00 -4.322201e-01 -3.697025e+00 11 13 10
-8.275525e+00 -7.299368e-01 -6.628369e+00 116 117 109
-7.147441e+00 -4.587778e-01 -5.753238e+00 19 22 21
-1.103873e+00 -7.912548e-01 -3.681217e+00 147 156 167
-7.156236e+00 -3.308607e-01 -5.692513e+00 170 181 188
-1.272253e+00 -7.717880e-01 -3.686935e+00 156 166 175
-6.640194e+00 -3.451929e-01 -5.496822e+00 176 185 190
-9.963426e-01 -6.719806e-01 -3.611105e+00 199 204 207
-4.621906e+00 -2.506184e-01 -4.720322e+00 132 148 163
2.284467e+01 8.119598e+00 -2.938099e+01 193 197 86
2.039935e+01 9.713396e+00 -3.304051e+01 126 131 63
2.039935e+01 9.713396e+00 -3.304051e+01 126 131 63
-6.898562e+00 -2.780403e-01 -5.545364e+00 152 157 173
-6.925445e+00 -1.267834e-01 -5.518427e+00 142 147 152
-7.075595e+00 -1.002377e-01 -5.564198e+00 148 153 158
-6.852605e+00 -7.140463e-02 -5.467028e+00 254 254 255
-1.216751e+00 -4.686952e-01 -3.561391e+00 117 125 124
-7.357051e+00 1.424716e-01 -5.584237e+00 85 85 85
-1.006664e+00 -2.217791e-01 -3.413259e+00 30 34 40
2.237902e+01 8.495523e+00 -3.017187e+01 204 203 98
2.177259e+01 8.813516e+00 -3.132062e+01 143 155 67
-8.933088e-01 -5.498521e-01 -3.538609e+00 17 17 16
-9.632167e-01 -3.171991e-01 -3.448686e+00 60 68 74
1.917930e+01 6.126005e+00 -2.653777e+01 89 94 65
1.935788e+01 6.938339e+00 -2.808682e+01 202 199 135
1.988041e+01 7.200478e+00 -2.843561e+01 104 113 63
1.988041e+01 7.200478e+00 -2.843561e+01 104 113 63
1.499129e+01 8.951915e+00 -3.400458e+01 148 163 77
1.981110e+01 8.086073e+00 -3.021218e+01 200 214 100
1.671191e+01 8.859286e+00 -3.301893e+01 174 180 76
2.364312e+01 8.112613e+00 -2.953792e+01 203 207 97
1.987479e+01 9.105250e+00 -3.224701e+01 203 184 117
2.120551e+01 8.854157e+00 -3.117586e+01 201 203 103
-6.973865e+00 -3.851542e-01 -5.613819e+00 174 182 188
-6.973865e+00 -3.851542e-01 -5.613819e+00 174 182 188
-4.461131e+00 7.105037e-01 -4.426676e+00 129 142 159
1.945656e+01 5.699616e+00 -2.571409e+01 211 216 219
1.688655e+01 7.807123e+00 -3.097555e+01 212 204 123
1.764088e+01 7.847702e+00 -3.101838e+01 192 191 119
1.935219e+01 7.695912e+00 -2.957228e+01 104 105 44
1.673360e+01 8.400270e+00 -3.232218e+01 239 224 180
1.755771e+01 9.191875e+00 -3.308010e+01 199 192 104
-1.330125e+00 -2.177916e-01 -3.574788e+00 27 30 29
-4.733975e+00 1.690199e-01 -4.536088e+00 204 216 224
-9.046369e+00 7.444200e-01 -6.211654e+00 110 130 155
1.677015e+01 6.380019e+00 -2.787327e+01 184 193 108
1.995455e+01 5.969675e+00 -2.617603e+01 89 82 53
1.909987e+01 6.333933e+00 -2.704625e+01 118 120 81
1.843202e+01 7.625843e+00 -2.999655e+01 123 128 66
1.934055e+01 7.817988e+00 -2.983777e+01 117 127 75
1.934055e+01 7.817988e+00 -2.983777e+01 117 127 75
1.718324e+01 8.697488e+00 -3.268343e+01 79 64 37
1.791186e+01 8.602663e+00 -3.202995e+01 101 107 62
2.231650e+01 8.196535e+00 -2.979531e+01 120 120 53
2.283144e+01 8.239633e+00 -2.970923e+01 210 216 93
2.324851e+01 8.287975e+00 -2.977000e+01 215 214 96
2.356834e+01 8.380242e+00 -2.975911e+01 120 120 65
1.801625e+01 9.801515e+00 -3.447917e+01 126 145 57
-5.166133e+00 2.938142e+00 -8.307655e+00 182 207 163
2.046705e+01 9.373477e+00 -3.222333e+01 139 134 79
1.607499e+01 1.082838e+01 -3.735690e+01 211 212 111
9.798523e-03 -2.415125e-02 -3.178514e+00 200 220 247
9.798523e-03 -2.415125e-02 -3.178514e+00 200 220 247
1.849621e+01 7.326903e+00 -2.955801e+01 119 112 73
1.994294e+01 7.088816e+00 -2.824266e+01 192 204 132
1.834161e+01 7.427856e+00 -2.958064e+01 110 108 56
1.925113e+01 7.450785e+00 -2.932811e+01 198 201 110
1.482321e+01 8.566821e+00 -3.333846e+01 188 194 104
1.066396e+01 9.789046e+00 -3.763908e+01 221 210 130
2.033502e+01 7.498419e+00 -2.886741e+01 203 215 135
2.190483e+01 7.505047e+00 -2.856354e+01 131 120 78
1.904965e+01 8.328045e+00 -3.100214e+01 147 140 82
1.904965e+01 8.328045e+00 -3.100214e+01 147 140 82
1.748820e+01 8.854185e+00 -3.276847e+01 199 202 110
2.100612e+01 8.268359e+00 -3.016533e+01 206 211 117
2.340448e+01 8.020020e+00 -2.916347e+01 204 203 96
1.924986e+01 8.690039e+00 -3.154455e+01 147 131 55
1.924986e+01 8.690039e+00 -3.154455e+01 147 131 55
1.032105e+01 1.215618e+01 -4.247649e+01 229 218 124
-7.008516e+00 -8.970257e-01 -5.706032e+00 119 119 114
-1.231278e+00 -7.131261e-01 -3.642373e+00 19 27 53
-4.362343e+00 -3.267101e-01 -4.547976e+00 49 58 66
-1.579989e+00 -4.964944e-01 -3.756408e+00 84 79 91
-7.292554e+00 6.705123e-02 -5.625045e+00 255 254 253
-4.703107e+00 1.860462e-01 -4.514650e+00 27 39 54
-4.244253e+00 6.988217e-01 -4.230040e+00 223 241 243
1.860002e+01 5.759993e+00 -2.594777e+01 210 215 217
1.937031e+01 5.858657e+00 -2.638024e+01 209 214 215
1.927944e+01 5.885160e+00 -2.613541e+01 145 132 108
1.715736e+01 6.816967e+00 -2.881892e+01 198 210 127
1.909560e+01 7.202851e+00 -2.922611e+01 128 123 60
-1.698497e+01 1.646489e+01 -6.300903e+01 233 216 167
1.864174e+01 7.380488e+00 -2.949624e+01 225 207 138
2.094984e+01 7.113477e+00 -2.829858e+01 134 131 78
1.826644e+01 7.793421e+00 -3.042995e+01 95 96 48
1.328393e+01 9.205442e+00 -3.559594e+01 215 213 100
2.272658e+01 7.954824e+00 -2.940151e+01 141 145 49
2.342681e+01 8.109128e+00 -2.941947e+01 205 207 95
2.222784e+01 8.496926e+00 -3.043193e+01 126 122 51
2.222784e+01 8.496926e+00 -3.043193e+01 126 122 51
2.271755e+01 8.461065e+00 -3.012016e+01 132 121 73
2.318584e+01 8.522899e+00 -3.017796e+01 110 109 48
1.846695e+01 9.371213e+00 -3.315656e+01 112 117 44
2.289167e+01 8.599122e+00 -3.028120e+01 179 176 106
1.699214e+01 9.936742e+00 -3.467464e+01 211 205 127
1.699214e+01 9.936742e+00 -3.467464e+01 211 205 127
1.841911e+01 9.659585e+00 -3.356681e+01 131 120 62
2.108341e+01 9.279394e+00 -3.216110e+01 134 120 74
1.440407e+01 1.133535e+01 -3.899991e+01 233 222 151
-1.479314e+01 2.315431e+01 -6.311099e+01 76 72 61
-7.248893e+00 -5.356939e-01 -5.790649e+00 189 190 199
-1.502528e+00 -8.583869e-01 -3.810374e+00 153 147 145
-1.440957e+00 -6.560432e-01 -3.765413e+00 92 95 94
-6.777381e+00 -1.807142e-01 -5.488041e+00 142 142 133
-6.918428e+00 -1.605323e-01 -5.533385e+00 50 55 82
-7.306510e+00 5.850367e-01 -5.424964e+00 160 179 177
-4.521979e+00 6.957802e-01 -4.345436e+00 235 245 253
-4.501436e+00 7.061308e-01 -4.338217e+00 69 78 95
-2.815486e+00 9.274997e-01 -3.782996e+00 169 176 176
1.863941e+01 5.370343e+00 -2.569562e+01 183 190 182
-2.974330e+00 1.265476e+00 -4.002235e+00 232 244 252
1.878466e+01 6.210526e+00 -2.690040e+01 240 220 171
1.878466e+01 6.210526e+00 -2.690040e+01 240 220 171
1.441516e+01 7.927902e+00 -3.257539e+01 179 189 112
-1.715992e+01 1.640892e+01 -6.306978e+01 236 224 174
1.675447e+01 8.488446e+00 -3.254618e+01 217 204 154
1.659587e+01 8.610276e+00 -3.263693e+01 203 218 121
1.866303e+01 8.143753e+00 -3.082205e+01 215 214 117
1.866303e+01 8.143753e+00 -3.082205e+01 215 214 117
1.870334e+01 8.225892e+00 -3.105419e+01 202 198 105
9.969010e+00 1.036446e+01 -3.894261e+01 234 217 137
1.718982e+01 8.780044e+00 -3.271423e+01 92 88 24
1.718982e+01 8.780044e+00 -3.271423e+01 92 88 24
-9.120551e-01 -4.941606e-01 -3.487129e+00 170 184 191
2.745893e+01 2.270783e+01 -7.272052e+01 246 248 235
-1.370893e+01 1.415434e+01 -5.760969e+01 218 227 186
-4.793830e+00 -8.448539e-02 -7.596850e+00 159 169 168
-4.120105e+00 -1.028077e+00 6.151848e+00 0 255 0
-4.117731e+00 -1.030369e+00 6.101957e+00 255 255 0
-5.709402e+00 -9.735135e-01 5.938965e+00 255 0 0
-5.700718e+00 -9.746268e-01 5.889737e+00 255 255 0
-2.106611e+00 -1.090891e+00 6.531014e+00 0 255 0
-2.110122e+00 -1.093485e+00 6.481205e+00 255 255 0
-7.558276e+00 -8.840787e-01 5.331712e+00 255 0 0
-7.543458e+00 -8.858126e-01 5.283989e+00 255 255 0
