ply
format ascii 1.0
element vertex 913
property float x
property float y
property float z
property uchar diffuse_red
property uchar diffuse_green
property uchar diffuse_blue
end_header
-5.114249e+01 2.902162e+01 -9.915896e+01 254 229 187
-4.583512e+01 3.209357e+01 -1.074559e+02 146 127 115
-4.682541e+01 3.175216e+01 -1.055358e+02 239 225 184
-5.584643e+01 2.788702e+01 -9.099166e+01 255 247 197
-5.614380e+01 2.785183e+01 -8.983738e+01 255 248 212
-4.774811e+01 3.209663e+01 -1.030640e+02 238 222 203
-5.632955e+01 2.967597e+01 -9.038594e+01 255 240 205
-4.996813e+01 3.251105e+01 -1.003421e+02 151 143 147
-1.244911e+00 -2.574088e+00 3.262972e+00 207 209 208
-5.823715e+01 2.347346e+01 -8.721249e+01 254 246 208
1.305433e+01 9.458496e+00 -4.139551e+01 238 231 162
-5.975495e+01 2.215055e+01 -8.398873e+01 121 98 100
-6.034172e+01 2.124947e+01 -6.252418e+01 250 238 204
-1.808046e+01 3.062619e+00 1.077402e+00 108 142 173
-1.737240e+01 3.978414e+00 -6.285494e+00 191 216 213
-8.399100e+00 -4.877241e+00 4.931497e+00 255 255 253
-7.214542e+00 -2.727735e+00 6.325238e+00 209 227 237
-9.164824e+00 -3.420693e+00 5.012635e+00 25 24 38
-9.235161e+00 -4.342000e+00 4.862608e+00 176 175 177
-2.436685e+01 -2.619293e+00 -1.974761e+00 237 228 222
-2.555215e+01 -1.437269e+00 -2.596001e+00 182 173 157
-1.227384e+01 6.692388e-02 4.208285e+00 184 195 208
-2.385964e+01 -3.556718e+00 -2.118265e+00 152 145 135
-2.366279e+01 -2.017743e+00 -1.357867e+00 122 110 133
-1.073419e+01 6.497048e-01 2.932533e+00 61 71 74
-9.135226e+00 1.405113e+00 4.940919e-01 57 62 69
-1.012217e+00 -2.506058e+00 2.677867e+00 247 247 241
-2.245273e+01 -2.752970e+00 -1.058577e+00 26 19 21
-2.401467e+01 -2.302621e+00 -1.744602e+00 231 230 229
-7.781960e+00 1.958002e+00 -2.099937e+00 66 65 95
-4.314196e+01 1.770830e+01 -7.642674e+01 141 183 202
-9.828446e+00 -4.153875e+00 4.403498e+00 214 209 197
-7.968448e+00 -3.949374e+00 5.457254e+00 152 157 156
-1.044442e+00 -2.078438e+00 3.050284e+00 254 253 255
-1.425599e+01 2.970362e+00 -6.007957e+00 211 230 233
-1.973580e+02 3.564865e+01 -1.652778e+02 247 238 168
-5.189839e+01 2.083800e+01 -8.316193e+01 137 181 186
-1.388318e+02 2.998017e+01 -1.265922e+02 207 197 166
-2.976737e+01 1.873416e+01 -7.001104e+01 220 245 126
-1.770146e+00 -3.084808e+00 3.842263e+00 23 24 26
-9.726343e-01 -2.337318e+00 1.132845e+00 26 25 23
-1.272512e+00 -7.565333e-01 1.881767e+00 160 165 170
-1.167323e+00 -2.396933e+00 3.104401e+00 249 247 249
-8.227081e+00 -5.038981e+00 4.867103e+00 74 75 70
-8.900512e+00 -3.418431e+00 5.133512e+00 241 235 229
-1.074365e+00 -2.203386e+00 2.750082e+00 254 255 255
-7.967967e+00 -5.214426e+00 2.743322e+00 82 79 63
-1.072518e+00 -2.567860e+00 2.889974e+00 252 252 251
-1.465581e+00 -2.699881e+00 3.764743e+00 254 254 246
-9.077794e+00 -3.233669e+00 5.224526e+00 37 38 40
-2.626932e-01 -1.292288e+00 3.409838e-01 190 112 62
-3.192651e+02 4.746454e+01 -2.112587e+02 116 127 157
-3.168449e+02 4.862731e+01 -2.108875e+02 255 255 251
-1.367075e+00 -2.496468e+00 3.715961e+00 253 254 255
-1.484560e+00 -2.519592e+00 3.780337e+00 254 255 249
-3.175422e+02 4.770540e+01 -2.116493e+02 252 255 255
-1.210257e+00 -2.748031e+00 3.083642e+00 253 254 250
-9.011197e-01 -1.998685e+00 2.703643e+00 215 214 213
-2.610267e+01 1.160885e+01 -6.108374e+01 255 242 166
-9.298104e+00 1.393698e+00 4.164244e-01 50 58 67
-8.379636e+00 2.598695e+00 -4.292628e+00 255 254 238
-8.595302e+00 2.776507e+00 -4.656252e+00 145 140 137
-9.259983e+00 -4.990420e+00 4.522909e+00 169 169 171
-2.350686e+00 -3.221449e+00 5.043051e+00 113 122 114
-1.427750e+00 -2.715526e+00 3.650868e+00 131 127 150
-1.142529e+00 -2.561750e+00 3.056145e+00 135 141 163
-1.457082e+00 -2.593595e+00 3.839120e+00 255 255 245
-8.263845e+00 -3.402618e+00 5.455840e+00 57 56 55
-4.618262e+00 -1.719199e+00 6.535848e+00 210 219 229
-1.285482e+00 -2.833076e+00 3.277710e+00 232 241 245
-9.484972e-01 -2.732567e+00 2.613084e+00 252 254 251
-9.672748e-01 -2.276059e+00 2.744432e+00 139 140 164
-1.606579e+00 -2.178078e+00 4.118293e+00 94 105 116
-1.807173e+00 -1.233370e+00 3.196481e+00 201 205 194
-1.146606e+01 3.876605e+00 -3.071712e+01 172 168 135
-1.651249e+01 1.066123e+00 -2.152390e+00 125 149 156
-8.206181e+00 2.445705e+00 -4.034441e+00 74 76 68
-3.135881e+00 -2.247986e+00 5.171900e+00 138 153 160
-4.830508e+01 3.120916e+01 -1.030218e+02 228 207 178
-5.049326e+01 2.795518e+01 -9.878656e+01 116 101 72
-4.896305e+01 2.785802e+01 -1.024206e+02 242 235 214
-4.898446e+01 2.838284e+01 -1.021880e+02 254 251 237
-4.988344e+01 2.895193e+01 -1.012647e+02 69 61 50
-4.912611e+01 2.925695e+01 -1.019416e+02 245 240 221
-4.796257e+01 3.175901e+01 -1.037511e+02 97 86 66
-4.796257e+01 3.175901e+01 -1.037511e+02 97 86 66
-4.768614e+01 2.964784e+01 -1.038927e+02 208 188 161
-4.931847e+01 3.023675e+01 -1.012557e+02 109 102 96
-5.062643e+01 2.982331e+01 -9.958011e+01 142 124 88
-5.062643e+01 2.982331e+01 -9.958011e+01 142 124 88
-5.111474e+01 2.777855e+01 -9.877785e+01 184 165 114
-4.970006e+01 2.839377e+01 -1.011753e+02 111 108 93
-4.951848e+01 2.852919e+01 -1.015722e+02 224 222 209
-4.857273e+01 2.905579e+01 -1.032734e+02 164 150 115
-2.698669e+00 -1.973415e+00 4.754113e+00 35 36 42
-4.990168e+01 2.847946e+01 -1.009661e+02 177 166 130
-5.074301e+01 2.870140e+01 -9.927200e+01 195 173 131
-5.074301e+01 2.870140e+01 -9.927200e+01 195 173 131
-5.048709e+01 2.897204e+01 -9.973024e+01 131 111 70
-5.071948e+01 2.909721e+01 -9.934285e+01 125 101 70
-5.017943e+01 2.944015e+01 -1.003189e+02 228 195 151
-4.996020e+01 2.983051e+01 -1.006396e+02 213 184 142
-4.881472e+01 3.039252e+01 -1.027002e+02 76 79 74
-5.023934e+01 3.007003e+01 -1.002178e+02 223 188 150
-4.998877e+01 3.041040e+01 -1.005112e+02 222 194 151
-4.882166e+01 3.095209e+01 -1.024865e+02 82 81 78
-4.728436e+01 3.209094e+01 -1.046948e+02 216 187 150
-4.865726e+01 3.152848e+01 -1.025170e+02 217 196 161
-5.048804e+01 3.080308e+01 -9.961549e+01 247 208 169
-5.048804e+01 3.080308e+01 -9.961549e+01 247 208 169
-4.623522e+01 3.294534e+01 -1.064379e+02 198 168 135
-4.817369e+01 3.213712e+01 -1.031628e+02 205 185 144
-9.846307e+00 -4.230565e+00 4.471413e+00 119 111 102
-4.614726e+01 3.050653e+01 -1.070835e+02 222 198 160
-4.614726e+01 3.050653e+01 -1.070835e+02 222 198 160
-4.718018e+01 3.030900e+01 -1.051344e+02 222 192 157
-5.040093e+01 2.922226e+01 -9.987323e+01 190 161 124
-5.061105e+01 2.933349e+01 -9.953263e+01 194 170 127
-4.617728e+01 3.144285e+01 -1.068112e+02 217 174 130
-4.961011e+01 3.010905e+01 -1.013536e+02 212 212 199
-5.066920e+01 3.026157e+01 -9.929070e+01 219 199 156
-9.342151e+00 -3.131143e+00 5.044690e+00 125 126 119
-4.725063e+01 3.093257e+01 -1.050532e+02 237 198 160
-1.085201e+01 -2.998108e+00 4.552396e+00 71 74 70
-4.979034e+01 2.855310e+01 -1.011611e+02 73 70 54
-4.727550e+01 3.005960e+01 -1.047668e+02 191 170 140
-4.995422e+01 3.064654e+01 -1.007237e+02 91 85 66
-1.452558e+00 -2.267978e+00 4.017965e+00 101 101 98
-4.877777e+01 2.791619e+01 -1.026854e+02 117 106 89
-5.127972e+01 2.775109e+01 -9.858659e+01 104 87 37
-4.681480e+01 3.102634e+01 -1.057826e+02 104 88 69
-4.879706e+01 3.068463e+01 -1.025220e+02 85 92 87
-4.896670e+01 3.074278e+01 -1.020931e+02 143 139 126
-5.709224e+01 1.972104e+01 -7.985028e+01 249 246 227
-2.758994e+00 -3.416755e+00 4.736784e+00 19 21 20
-6.787944e-01 -2.437090e+00 1.916770e+00 26 28 27
-1.297641e+00 -7.445183e-01 1.733430e+00 186 192 200
-1.266878e+00 -7.427978e-01 1.749238e+00 186 192 200
-5.610786e+01 1.622427e+01 -7.497377e+01 177 161 103
-8.306086e-01 -2.043978e+00 2.493548e+00 255 255 254
-8.839472e-01 -2.046076e+00 2.431550e+00 255 255 254
-5.435856e+00 -2.394891e+00 6.551668e+00 209 163 151
-7.619501e+01 2.198531e+01 -9.080174e+01 251 249 236
-3.092937e+00 -1.871214e+00 4.750707e+00 235 235 233
-3.928275e+01 1.926938e+01 -7.693372e+01 179 166 115
-7.212522e+01 2.147759e+01 -8.890968e+01 242 240 224
-6.876079e+01 2.254476e+01 -8.675463e+01 168 164 106
-7.496353e+01 2.393585e+01 -8.980709e+01 255 196 162
-7.496353e+01 2.393585e+01 -8.980709e+01 255 196 162
-1.477809e+00 -3.179736e+00 3.479434e+00 51 57 58
-4.624022e-01 -2.141871e+00 2.357640e-01 153 158 158
-9.378093e-01 -1.840031e+00 2.707038e+00 110 114 117
-9.166238e-01 -1.844555e+00 2.724955e+00 110 114 117
-3.943534e+01 2.013084e+01 -7.928906e+01 201 170 109
-4.073267e+01 2.128734e+01 -8.141414e+01 254 223 167
-8.076926e+01 2.472473e+01 -9.315102e+01 255 201 169
-1.177822e+00 -2.692146e+00 3.051049e+00 253 253 252
-1.669158e+00 -2.822217e+00 3.967241e+00 129 135 125
-3.163276e-01 -3.133879e-01 -1.392398e+01 237 236 231
3.004645e-01 -4.010484e-02 -1.482636e+01 209 204 191
-4.930025e+01 1.486548e+01 -7.264101e+01 255 251 202
-4.712964e+01 1.604806e+01 -7.427466e+01 252 255 235
-3.270301e+01 1.949188e+01 -7.312658e+01 144 151 95
-1.301135e+00 -2.983546e+00 3.355100e+00 253 253 251
-8.555473e-01 -2.712545e+00 2.396950e+00 251 251 253
-1.518706e+00 -2.801714e+00 4.010023e+00 130 132 120
-1.478892e+00 -2.529483e+00 3.821827e+00 255 254 252
-5.648687e-01 -1.440799e+00 -1.328157e+00 112 115 113
-1.852976e+00 -1.257145e+00 3.262386e+00 29 34 50
-2.528881e+00 -1.400876e+00 4.192918e+00 55 55 65
-7.463513e+00 1.596600e+00 -7.734421e-01 181 209 229
-5.014428e+01 1.152041e+01 -6.228520e+01 176 167 138
-4.757277e+01 1.569273e+01 -7.335803e+01 255 232 180
-4.858815e+01 1.586335e+01 -7.381552e+01 145 137 79
-4.884926e+01 1.601276e+01 -7.333531e+01 255 235 168
-7.901619e+01 1.916214e+01 -9.324352e+01 148 148 146
-4.181581e+01 1.949860e+01 -7.698892e+01 134 115 68
-4.181581e+01 1.949860e+01 -7.698892e+01 134 115 68
-7.439046e+01 2.635555e+01 -8.739177e+01 255 197 158
-5.971408e+01 2.178377e+01 -6.257578e+01 239 224 182
-6.037072e+01 2.175887e+01 -6.253861e+01 196 179 126
9.050004e-01 -5.703016e+00 5.773296e+00 235 220 187
-1.441375e+00 -3.009099e+00 3.631543e+00 131 129 130
-1.417213e+00 -2.295763e+00 3.968677e+00 255 254 250
-1.427105e+00 -2.297133e+00 3.950318e+00 255 254 250
-2.833808e-01 -5.428727e-01 -1.319265e+01 161 157 148
-7.693616e-01 -1.886448e+00 2.449554e+00 255 255 255
-4.954232e+01 1.466968e+01 -7.184468e+01 248 236 163
-4.849188e+01 1.503992e+01 -7.255405e+01 254 239 186
-4.101921e+01 1.648255e+01 -7.440779e+01 255 247 194
-5.252592e+01 1.585234e+01 -7.317953e+01 145 143 100
-7.227599e+01 1.842679e+01 -8.957687e+01 185 177 165
-7.500534e+01 1.878642e+01 -9.085358e+01 117 115 114
-8.147596e+01 1.998806e+01 -9.467408e+01 150 153 149
-7.882400e+01 2.296577e+01 -9.214139e+01 114 106 95
-7.882400e+01 2.296577e+01 -9.214139e+01 114 106 95
-5.645502e+01 2.228486e+01 -8.514086e+01 255 255 234
-7.144813e+01 2.841189e+01 -8.734689e+01 255 190 151
-3.460824e+00 -3.338984e+00 3.840876e+00 121 128 126
-2.518821e+00 -3.102170e+00 3.894169e+00 124 131 125
-8.038135e-01 -2.526648e+00 2.251157e+00 254 254 253
-1.241741e+00 -2.501326e+00 3.288020e+00 253 252 248
-8.717776e-01 -1.934379e+00 2.624212e+00 254 255 251
-1.810895e+00 -1.170628e+00 3.216901e+00 208 211 184
-1.036666e+00 -5.257504e-01 1.369418e+00 255 253 255
-1.182982e+01 3.612973e+00 -3.017186e+01 242 238 228
-1.173252e+01 3.592830e+00 -3.000190e+01 242 238 228
-9.153395e+00 1.412232e+00 4.497445e-01 47 57 63
-5.218403e+01 1.506781e+01 -7.333188e+01 237 221 159
-4.462687e+01 1.606175e+01 -7.459257e+01 255 250 205
-4.462687e+01 1.606175e+01 -7.459257e+01 255 250 205
-7.464164e+01 1.821465e+01 -9.084687e+01 239 235 201
-5.216858e+01 1.614092e+01 -7.307163e+01 114 117 66
-4.511767e+01 1.702123e+01 -7.549818e+01 235 224 162
-7.989782e+01 1.943607e+01 -9.355716e+01 253 253 237
-2.944760e+01 1.675245e+01 -6.738205e+01 222 240 132
-4.363707e+01 1.779994e+01 -7.518377e+01 239 238 175
-4.363707e+01 1.779994e+01 -7.518377e+01 239 238 175
-3.920217e+01 1.855894e+01 -7.659876e+01 255 237 180
-5.257685e+01 2.021722e+01 -8.078539e+01 255 253 183
-7.314238e+01 2.237133e+01 -8.885086e+01 105 99 80
-7.314238e+01 2.237133e+01 -8.885086e+01 105 99 80
-6.478107e+01 2.221038e+01 -8.480861e+01 214 197 153
-7.203776e+01 2.271606e+01 -8.773863e+01 83 74 47
-7.258746e+01 2.287112e+01 -8.844354e+01 83 74 47
-1.055436e+02 2.743422e+01 -1.069767e+02 223 188 158
-7.715859e+01 2.835219e+01 -9.037738e+01 255 204 162
-8.087512e+01 2.929118e+01 -9.214274e+01 210 136 112
-7.981837e+01 3.013777e+01 -9.132008e+01 254 203 167
-1.096261e+00 -2.775530e+00 2.868567e+00 133 133 161
-1.089951e+00 -2.766708e+00 2.870407e+00 133 133 161
-1.025021e+00 -2.635057e+00 2.668249e+00 254 255 250
-3.111304e+00 -3.184816e+00 5.775014e+00 255 189 54
-1.240252e+00 -2.496066e+00 3.289154e+00 254 253 247
-1.240327e+00 -2.496546e+00 3.288924e+00 254 253 247
-1.319730e+00 -2.498438e+00 3.471486e+00 141 137 169
-1.054755e+00 -2.385733e+00 2.861456e+00 255 255 255
-1.394716e+00 -2.400295e+00 3.667305e+00 251 215 217
-8.256893e-01 -2.202719e+00 2.413330e+00 145 148 162
-8.259174e-01 -2.200599e+00 2.416153e+00 145 148 162
-7.055858e-01 -7.331644e-01 -1.246735e+01 112 106 105
-1.023526e+00 -2.051616e+00 2.953875e+00 121 119 141
-9.167541e-01 -1.928843e+00 2.704715e+00 135 133 139
-9.165494e-01 -1.929357e+00 2.704802e+00 135 133 139
-1.875889e+00 -1.218807e+00 3.317586e+00 31 31 47
-1.422142e+01 2.376821e+00 -2.575719e+01 229 231 216
-1.255672e+01 3.602524e+00 -3.003788e+01 157 146 152
-1.982713e+01 8.022361e+00 -4.684604e+01 175 176 144
-9.254694e+00 1.356285e+00 6.755019e-01 67 80 96
-3.216732e+01 1.219954e+01 -6.509599e+01 187 179 131
-5.139697e+01 1.043294e+01 -6.065110e+01 212 200 172
-4.730985e+01 1.219182e+01 -6.680369e+01 245 233 199
-3.167777e+01 1.311911e+01 -6.535000e+01 212 209 149
-5.188406e+01 1.529443e+01 -7.307235e+01 156 115 81
-5.052753e+01 1.550786e+01 -7.312715e+01 239 229 167
-7.545334e+01 1.822811e+01 -9.136647e+01 138 139 101
-7.545334e+01 1.822811e+01 -9.136647e+01 138 139 101
-5.330311e+01 1.554512e+01 -7.289149e+01 125 114 74
-5.330311e+01 1.554512e+01 -7.289149e+01 125 114 74
-4.968158e+01 1.588225e+01 -7.330017e+01 221 222 150
-4.968158e+01 1.588225e+01 -7.330017e+01 221 222 150
-3.198568e+01 1.590907e+01 -6.825561e+01 214 206 118
-2.917349e+01 1.582845e+01 -6.678287e+01 98 100 49
-7.733431e+01 1.891927e+01 -9.226575e+01 218 214 202
-7.733431e+01 1.891927e+01 -9.226575e+01 218 214 202
-4.195296e+01 1.739248e+01 -7.572226e+01 231 224 141
-3.951172e+01 1.808966e+01 -7.625929e+01 253 238 191
-4.310508e+01 1.786028e+01 -7.541053e+01 77 77 38
-4.600806e+01 1.797019e+01 -7.572156e+01 251 254 203
-6.841048e+01 1.959416e+01 -8.682022e+01 211 203 185
-4.514463e+01 1.884743e+01 -7.658231e+01 221 227 155
-3.958667e+01 1.969392e+01 -7.666309e+01 207 221 145
-3.958667e+01 1.969392e+01 -7.666309e+01 207 221 145
-5.262806e+01 2.091542e+01 -8.138223e+01 146 157 80
-6.130701e+01 2.251523e+01 -8.547663e+01 90 85 81
-5.158965e+01 2.322509e+01 -8.462724e+01 166 169 91
-5.069640e+01 2.442257e+01 -8.794865e+01 217 199 142
-5.972369e+01 2.576872e+01 -8.489596e+01 255 249 227
-5.969490e+01 2.688982e+01 -8.450249e+01 255 251 224
-7.919657e+01 2.979356e+01 -9.100723e+01 145 92 77
-7.919657e+01 2.979356e+01 -9.100723e+01 145 92 77
-6.028167e+00 -4.286121e+00 -1.443855e-01 129 139 132
-1.140333e+00 -2.912146e+00 2.964523e+00 252 252 247
-9.858410e-01 -2.861695e+00 2.666405e+00 62 61 62
-1.342530e+00 -2.934764e+00 3.533796e+00 137 140 157
-1.062329e+00 -2.811339e+00 2.828797e+00 253 254 254
-9.890112e-01 -2.753977e+00 2.660153e+00 128 125 142
-9.870217e-01 -2.750266e+00 2.659171e+00 128 125 142
-1.344664e+00 -2.857323e+00 3.374036e+00 250 253 249
-1.344664e+00 -2.857323e+00 3.374036e+00 250 253 249
-1.288071e+00 -2.832656e+00 3.268218e+00 239 246 243
-1.288780e+00 -2.833007e+00 3.269540e+00 239 246 243
-1.467592e+00 -2.888615e+00 3.698087e+00 125 132 147
-1.005269e+00 -2.747922e+00 2.716497e+00 252 252 252
-1.065729e+00 -2.755822e+00 2.820626e+00 127 128 144
-8.367307e-01 -2.670445e+00 2.374275e+00 254 254 254
-8.367307e-01 -2.670445e+00 2.374275e+00 254 254 254
-1.279049e+00 -2.772257e+00 3.270076e+00 124 130 153
-1.279998e+00 -2.772093e+00 3.269651e+00 124 130 153
-1.253460e+00 -2.752364e+00 3.208490e+00 247 255 250
-9.196398e-01 -2.609825e+00 2.456334e+00 251 253 247
-9.163140e-01 -2.610764e+00 2.459889e+00 251 253 247
-9.689832e-01 -2.584263e+00 2.578521e+00 255 253 250
-1.457920e+00 -2.614278e+00 3.776032e+00 139 139 151
-1.466342e+00 -2.614002e+00 3.771159e+00 139 139 151
-1.422089e+00 -2.606289e+00 3.718110e+00 255 255 252
-1.428408e+00 -2.613824e+00 3.711904e+00 255 255 252
-1.366671e+00 -2.512994e+00 3.573445e+00 133 132 162
-1.037069e+00 -2.339083e+00 2.816162e+00 142 141 152
-1.036621e+00 -2.339268e+00 2.816236e+00 142 141 152
-9.870740e-01 -2.277687e+00 2.728267e+00 144 143 169
-9.832745e-01 -2.276391e+00 2.730256e+00 144 143 169
-8.805337e-01 -2.227470e+00 2.525820e+00 143 142 158
-8.804334e-01 -2.228383e+00 2.523793e+00 143 142 158
-3.243865e+00 -1.636895e+00 -9.531918e+00 108 101 99
-1.135673e+00 -2.230084e+00 3.096189e+00 255 252 253
-9.001446e-02 -3.285280e-01 -1.392010e+01 249 247 240
2.952783e-01 -1.582613e-01 -1.451029e+01 249 249 244
-5.142879e+01 1.074353e+01 -6.077249e+01 64 55 44
-3.342562e+01 1.459494e+01 -6.871522e+01 204 210 127
-3.643967e+01 1.473450e+01 -7.023143e+01 255 254 218
-3.216302e+01 1.508883e+01 -6.882128e+01 85 90 51
-3.058014e+01 1.496881e+01 -6.769744e+01 225 229 148
-4.746528e+01 1.535216e+01 -7.296697e+01 255 246 190
-2.872396e+01 1.529857e+01 -6.691838e+01 77 75 34
-5.124244e+01 1.588183e+01 -7.319656e+01 221 232 162
-5.281413e+01 1.627550e+01 -7.308988e+01 254 220 157
-4.898342e+01 1.660277e+01 -7.370133e+01 255 252 178
-4.813215e+01 1.685370e+01 -7.396108e+01 226 230 163
-2.825064e+01 1.625851e+01 -6.644942e+01 208 233 121
-4.904649e+01 1.736250e+01 -7.463886e+01 151 144 86
-4.014082e+01 1.844314e+01 -7.654991e+01 133 112 68
-3.975354e+01 1.874446e+01 -7.664152e+01 236 236 150
-3.965689e+01 1.870013e+01 -7.644378e+01 236 236 150
-2.951635e+01 1.754859e+01 -6.856155e+01 162 147 88
-3.931404e+01 1.939263e+01 -7.795898e+01 150 129 79
-5.146165e+01 2.022993e+01 -8.083895e+01 135 132 71
-4.065508e+01 1.970897e+01 -7.675876e+01 117 107 72
-4.456544e+01 1.950622e+01 -7.660596e+01 131 134 79
-3.953237e+01 1.994272e+01 -7.671500e+01 100 100 43
-5.054931e+01 2.100364e+01 -8.196024e+01 228 240 164
-5.593421e+01 2.182323e+01 -8.389686e+01 200 202 159
-5.607273e+01 2.188150e+01 -8.408865e+01 200 202 159
-4.534184e+01 2.172532e+01 -8.152813e+01 250 248 198
-5.971764e+01 2.200131e+01 -6.172832e+01 253 244 197
-8.136152e+01 3.010066e+01 -9.204480e+01 253 182 157
-8.034730e+01 3.041513e+01 -9.148557e+01 183 112 95
-6.066714e+01 2.253235e+01 -8.291829e+01 131 127 118
-5.139060e+01 2.734186e+01 -9.811462e+01 183 170 105
-5.200235e+01 2.715524e+01 -9.714495e+01 118 104 63
-5.916322e+01 2.259808e+01 -8.560086e+01 77 61 45
-5.999632e+01 2.172464e+01 -6.243652e+01 126 112 53
-1.810543e+01 2.884120e+00 1.125177e+00 109 136 121
-5.742494e+01 2.560366e+01 -8.819580e+01 242 200 147
-5.700346e+01 2.592566e+01 -8.880982e+01 250 207 160
-5.701268e+01 2.633590e+01 -8.871236e+01 252 202 153
-4.687440e+01 3.236438e+01 -1.053648e+02 240 215 181
-7.005059e+01 2.783937e+01 -8.600307e+01 203 128 96
-6.082618e+01 2.190472e+01 -6.248987e+01 189 165 129
-6.924793e+01 2.786299e+01 -8.537761e+01 146 93 69
-6.924793e+01 2.786299e+01 -8.537761e+01 146 93 69
-6.049034e+01 2.190956e+01 -6.227248e+01 91 86 49
-5.852388e+01 2.297917e+01 -8.629150e+01 214 191 137
-6.933793e+01 2.773331e+01 -8.562738e+01 229 157 119
-6.963610e+01 2.806582e+01 -8.566020e+01 219 145 107
-2.410620e+01 -3.479342e+00 -2.222337e+00 243 232 219
-1.086448e+01 -3.069530e+00 4.522882e+00 69 68 60
-8.536033e+00 -3.039000e+00 5.488615e+00 44 41 41
-1.194762e+01 -2.576655e+00 4.195787e+00 73 77 76
-2.273131e+01 1.502149e+00 -6.587731e-01 209 202 186
-5.912433e+01 2.276133e+01 -8.572603e+01 197 172 116
-6.040521e+01 1.857118e+01 -6.329244e+01 190 170 129
-5.075980e+01 2.435082e+01 -8.705015e+01 252 217 134
-6.023814e+01 1.918995e+01 -6.315256e+01 191 168 129
-6.064616e+01 1.922337e+01 -6.314513e+01 183 162 125
-5.741103e+01 2.562224e+01 -8.832431e+01 248 210 164
-6.033650e+01 2.097457e+01 -6.259015e+01 187 169 134
-6.104977e+01 2.226453e+01 -6.248155e+01 180 162 122
-5.965136e+01 2.248338e+01 -6.314063e+01 225 198 135
-6.968326e+00 -2.889595e+00 6.361368e+00 229 232 225
-6.092214e+01 2.278407e+01 -8.282107e+01 249 234 210
-5.072893e+01 2.422840e+01 -8.707504e+01 253 217 135
-6.001687e+01 1.881284e+01 -6.337741e+01 231 201 145
-5.999191e+01 1.897155e+01 -6.333576e+01 238 204 147
-6.026797e+01 1.977727e+01 -6.294331e+01 184 172 127
-6.026797e+01 1.977727e+01 -6.294331e+01 184 172 127
-5.991339e+01 2.029031e+01 -6.296098e+01 193 167 121
-5.597802e+01 2.727366e+01 -9.037213e+01 254 225 180
-7.011223e+01 2.795143e+01 -8.605800e+01 192 126 96
-6.020688e+01 2.204542e+01 -6.203878e+01 118 105 62
-6.092457e+01 2.226206e+01 -6.248918e+01 132 112 78
-5.952129e+01 2.258700e+01 -6.338207e+01 209 191 143
-5.070576e+01 2.462782e+01 -8.700657e+01 214 184 128
-5.756076e+01 2.511431e+01 -8.815473e+01 124 110 74
-6.093757e+01 2.468650e+01 -8.257125e+01 70 76 62
-4.875284e+01 3.055352e+01 -1.026461e+02 116 110 99
-4.802896e+01 3.120202e+01 -1.035676e+02 160 140 108
-4.735360e+01 3.206168e+01 -1.046714e+02 251 220 184
-6.068599e+01 2.717731e+01 -8.240368e+01 233 192 155
-6.031890e+01 2.204862e+01 -6.205889e+01 168 151 112
-3.664144e+00 -3.595607e+00 5.757512e+00 17 19 33
-8.661590e-01 -2.555788e+00 2.364689e+00 254 254 251
-8.690876e-01 -2.558770e+00 2.362954e+00 254 254 251
-1.156015e+00 -2.559204e+00 3.029992e+00 115 122 166
-1.428684e+00 -2.625859e+00 3.714163e+00 252 248 237
-1.054417e+00 -2.385592e+00 2.861545e+00 250 249 249
-1.232270e+00 -2.202429e+00 3.413832e+00 255 254 254
-8.983084e-01 -2.675000e+00 2.500779e+00 116 117 130
-1.445820e+00 -2.855978e+00 3.637106e+00 238 242 235
-1.453288e+00 -2.854917e+00 3.634097e+00 238 242 235
-1.371669e+00 -2.329056e+00 3.652290e+00 255 252 240
-4.423097e+01 1.632567e+01 -7.494042e+01 124 101 82
-4.698803e+01 1.754521e+01 -7.509446e+01 142 123 83
-9.594939e-01 -2.804070e+00 2.579897e+00 248 248 241
-9.365671e-01 -2.606532e+00 2.510905e+00 126 133 155
-1.129596e+00 -2.123443e+00 3.197266e+00 127 124 132
1.308706e+01 8.843842e+00 -4.033397e+01 121 105 52
-9.873585e+01 2.417597e+01 -1.039343e+02 160 160 134
-4.617771e+01 1.643248e+01 -7.495778e+01 143 163 171
-1.848906e+01 2.696019e+00 1.107731e+00 188 226 231
-3.131080e+02 4.541192e+01 -2.152655e+02 255 255 255
-3.161761e+02 3.948356e+01 -2.071749e+02 55 61 66
-3.286878e+02 3.922195e+01 -2.074163e+02 65 64 68
-3.135558e+02 4.436874e+01 -2.222144e+02 254 255 252
-3.135558e+02 4.436874e+01 -2.222144e+02 254 255 252
-3.176012e+02 4.167444e+01 -2.075382e+02 255 255 252
-3.121185e+02 4.670344e+01 -2.212794e+02 58 56 74
-3.173494e+02 4.464467e+01 -2.278601e+02 123 118 107
-1.257616e+00 -2.717747e+00 3.220112e+00 234 243 245
-1.257604e+00 -2.715110e+00 3.222849e+00 234 243 245
-3.132439e+02 4.210259e+01 -2.194109e+02 65 63 80
-3.127817e+02 4.536950e+01 -2.239666e+02 121 120 106
-7.630473e+01 3.074359e+01 -8.910154e+01 244 182 143
-3.620292e+00 -3.585666e+00 5.711758e+00 29 29 39
-4.493280e+00 -2.918606e+00 6.102640e+00 197 208 225
-4.493280e+00 -2.918606e+00 6.102640e+00 197 208 225
-1.042238e+01 4.200342e+00 -3.183601e+01 237 229 208
-3.118138e+02 4.276001e+01 -2.223457e+02 148 143 138
-2.930624e+02 4.963729e+01 -2.239854e+02 179 164 105
-6.069235e+01 2.228181e+01 -8.459097e+01 86 77 71
-4.554097e+01 1.696906e+01 -7.484891e+01 236 228 166
-4.669173e+01 1.753519e+01 -7.538754e+01 167 145 90
-3.224662e+02 3.957310e+01 -2.027215e+02 76 74 67
-5.215743e+01 2.057703e+01 -8.104634e+01 210 221 154
-5.125751e+01 2.116320e+01 -8.174245e+01 226 243 152
-3.253057e+02 4.644037e+01 -2.118875e+02 172 185 219
-1.429639e+00 -2.374993e+00 3.811547e+00 252 250 245
-3.672143e+00 -3.305665e+00 6.325726e+00 168 107 41
-2.387345e+00 -1.894028e+00 5.376337e+00 230 231 226
-3.348117e+02 2.910195e+01 -1.416999e+02 92 109 140
-3.321816e+02 2.967335e+01 -1.382559e+02 255 254 254
-2.563866e-01 -1.314212e+00 4.386398e-01 180 106 57
-3.367119e+02 2.368360e+01 -1.279248e+02 96 99 130
-3.415478e+02 2.387459e+01 -1.257092e+02 248 247 249
-3.156715e+02 4.838004e+01 -2.101049e+02 255 254 255
-8.400835e+00 -4.522197e+00 5.119966e+00 126 127 133
-1.049922e+00 -9.634849e-01 1.347342e+00 237 245 242
-2.498937e+01 1.598942e+01 -6.756463e+01 243 238 150
-6.987824e+00 2.859603e+00 2.727118e+00 192 216 216
-3.367311e+02 2.515261e+01 -1.328763e+02 102 117 142
-3.364209e+02 2.513227e+01 -1.327441e+02 102 117 142
-9.481880e+01 2.450735e+01 -1.009158e+02 169 158 137
-9.481880e+01 2.450735e+01 -1.009158e+02 169 158 137
-3.323093e+02 2.942348e+01 -1.362560e+02 255 254 254
-1.595099e+00 -5.639409e+00 5.124711e+00 60 59 59
-3.581135e+00 -3.152366e+00 6.281451e+00 255 207 73
-1.081316e+00 -2.039821e+00 3.146291e+00 255 254 255
-1.701366e+00 -1.096779e+00 2.933082e+00 194 196 182
-7.426896e+01 1.918179e+01 -9.038538e+01 242 239 220
-4.161580e+02 2.101376e+01 -1.375505e+02 88 91 61
-4.161580e+02 2.101376e+01 -1.375505e+02 88 91 61
-2.699285e+01 1.858517e+01 -6.910281e+01 236 253 163
-3.159089e+01 1.309319e+01 -6.518263e+01 212 209 149
-4.089024e+01 1.712716e+01 -7.473436e+01 236 221 156
-2.709632e+01 1.690051e+01 -6.724156e+01 214 234 137
-1.267471e+01 3.414073e+00 -5.584734e-01 73 107 141
-2.671180e+01 1.814533e+01 -6.900411e+01 229 245 155
-2.672386e+01 1.868008e+01 -6.950078e+01 228 252 129
2.025885e+00 -7.008063e+00 1.064044e+01 53 61 68
-9.324953e-01 -2.826946e+00 2.526013e+00 63 60 63
-1.382851e+00 -2.884932e+00 3.469736e+00 254 255 253
-9.071730e-01 -2.612882e+00 2.473073e+00 251 253 247
-1.791585e+00 -1.216818e+00 3.153795e+00 34 31 36
-8.871740e+00 1.633573e+00 -3.667598e-01 30 39 49
-3.216184e+01 1.423667e+01 -6.755079e+01 241 249 155
-2.719803e+01 1.617770e+01 -6.780791e+01 118 101 56
-2.686673e+01 1.645922e+01 -6.772863e+01 232 248 141
-2.813136e+01 1.664122e+01 -6.686039e+01 227 244 130
-2.853226e+01 1.760947e+01 -6.822778e+01 226 233 129
-2.819035e+01 1.797034e+01 -6.856114e+01 114 98 42
-2.852844e+01 1.804198e+01 -6.863359e+01 105 113 43
-3.146770e+02 4.043005e+01 -2.032514e+02 156 142 139
-2.806415e+01 1.832381e+01 -6.865632e+01 123 118 67
-3.128134e+02 4.762208e+01 -2.148702e+02 123 133 156
-6.056076e-01 -1.485282e+00 1.726872e+00 238 239 237
-4.195627e+00 -1.906843e+00 4.663980e+00 255 255 255
-3.282482e+00 -3.823134e+00 5.460917e+00 254 254 254
-6.599253e-01 -1.698827e+00 -8.675979e-01 50 50 52
-6.125124e-01 -2.021388e+00 1.905199e+00 178 187 182
-8.921348e-01 -1.562510e+00 1.980679e+00 243 245 244
-2.174831e+01 3.595136e+00 -5.101612e+00 119 156 174
-1.173315e+00 -2.766060e+00 2.982634e+00 166 172 183
-5.556408e-01 -1.235966e+00 -4.584343e-01 173 105 21
-8.058345e+01 2.830359e+01 -9.220673e+01 246 175 141
-7.438688e+01 2.767589e+01 -8.857063e+01 246 179 145
-1.351791e+00 -2.313189e+00 3.912062e+00 233 228 228
-9.324859e-01 -6.096653e-01 1.083129e+00 252 252 252
-8.589066e+01 2.713964e+01 -9.543975e+01 246 182 153
-8.589066e+01 2.713964e+01 -9.543975e+01 246 182 153
1.012750e+00 -7.658901e+00 1.277403e+01 48 53 54
-1.119966e+00 -1.129836e+00 1.197382e+00 175 194 208
-7.717017e+01 1.921166e+01 -9.213734e+01 234 233 212
-3.996171e+01 1.845824e+01 -7.612535e+01 142 121 71
-8.231063e+01 2.014935e+01 -9.490229e+01 140 143 142
-8.709509e+01 2.346072e+01 -9.673096e+01 222 210 184
-8.641851e+01 2.441298e+01 -9.625863e+01 90 76 71
-8.277520e+01 2.427870e+01 -9.430327e+01 97 76 73
-8.510913e+01 2.530472e+01 -9.542718e+01 252 187 157
-8.510913e+01 2.530472e+01 -9.542718e+01 252 187 157
-1.131016e+00 -2.666547e+00 2.958256e+00 254 255 251
-7.523603e-01 -2.233153e+00 2.216830e+00 70 69 79
-1.046651e+00 -2.210604e+00 2.869962e+00 255 255 255
-2.754689e+00 -1.564417e+00 4.817586e+00 37 40 56
-1.106983e+01 -7.794627e-02 4.112532e+00 160 202 244
-5.370506e+01 9.309981e+00 -5.604410e+01 169 158 136
-4.891301e+01 1.546566e+01 -7.248613e+01 185 174 119
-8.931768e+01 2.563359e+01 -9.769382e+01 254 190 159
-8.931768e+01 2.563359e+01 -9.769382e+01 254 190 159
-8.876093e+01 2.660068e+01 -9.757518e+01 117 76 73
-1.383062e+00 -3.023917e+00 3.553346e+00 244 244 244
-1.282092e+00 -2.952826e+00 3.218754e+00 216 217 212
-9.462288e-01 -2.763448e+00 2.567266e+00 187 187 189
-1.377180e+00 -1.075865e+00 -1.171672e+01 123 127 128
-3.513023e-01 -6.341404e-01 -1.272906e+01 125 107 93
-7.539734e-01 -1.884655e+00 2.457238e+00 255 255 255
-1.855908e+00 -1.264814e+00 3.242736e+00 48 52 61
-5.550120e+01 8.343462e+00 -5.322213e+01 229 221 184
-5.305994e+01 1.007704e+01 -5.741908e+01 125 116 107
-8.610631e+01 1.947987e+01 -9.726438e+01 252 254 244
-8.496281e+01 2.221276e+01 -9.564405e+01 252 246 226
-8.458821e+01 2.332160e+01 -9.512199e+01 116 111 109
-9.014169e+01 2.714332e+01 -9.789603e+01 241 173 143
-7.711422e+01 2.858010e+01 -9.050299e+01 254 192 157
1.001675e+00 -8.270446e+00 1.500545e+01 30 32 37
-7.662204e-01 -2.669245e+00 2.167277e+00 128 129 123
-1.303713e+00 -2.553043e+00 3.394884e+00 251 251 243
-1.303372e+00 -2.552968e+00 3.393790e+00 251 251 243
-1.403857e+00 -2.492789e+00 3.650310e+00 251 249 244
-6.521801e-01 -1.586282e+00 -1.134090e+00 38 38 37
-1.790113e+00 -1.183515e+00 2.997612e+00 28 33 49
-1.790113e+00 -1.183515e+00 2.997612e+00 28 33 49
-1.337048e+01 2.867009e+00 -2.756759e+01 238 235 230
-8.745754e+01 -6.579581e+00 -3.319211e+00 164 145 120
-8.925395e+01 -5.612497e+00 -2.245611e+00 82 72 52
-5.290983e+01 8.765328e+00 -5.506809e+01 103 99 88
-7.748660e+01 1.851274e+01 -9.233258e+01 247 244 217
-1.248303e+01 3.396292e+00 -5.634043e-01 158 187 190
-1.261236e+01 3.341315e+00 -4.123138e-01 167 192 193
-1.452858e+01 2.793784e+00 2.356474e+00 165 199 221
-7.014398e+01 2.457406e+01 -8.514152e+01 124 73 69
-8.326203e+01 3.037626e+01 -9.318074e+01 248 182 149
-1.423070e+00 -2.714800e+00 3.652122e+00 111 114 147
-1.156519e+00 -2.559820e+00 3.029524e+00 115 122 166
-1.569192e+00 -2.687884e+00 4.012643e+00 41 49 52
-9.030566e-01 -2.302415e+00 2.559381e+00 255 255 254
-7.206023e-01 -2.134388e+00 2.189384e+00 124 127 123
-7.206023e-01 -2.134388e+00 2.189384e+00 124 127 123
-1.337283e+00 -2.231262e+00 3.577818e+00 130 123 129
-1.900140e+00 -1.227288e+00 3.376281e+00 218 220 213
-1.733517e+00 -1.137151e+00 3.001327e+00 35 37 50
-1.840670e+00 -1.118394e+00 3.264641e+00 29 31 59
-1.765129e+00 -1.066799e+00 3.095505e+00 31 32 53
-1.767278e+00 -1.066958e+00 3.094061e+00 31 32 53
-1.740281e+01 7.194452e-01 -2.027029e+01 242 237 230
-1.463983e+01 2.188782e+00 -2.526039e+01 234 233 218
-1.296989e+01 2.988904e+00 -2.774147e+01 237 241 219
-5.666655e+01 7.840896e+00 -5.106234e+01 214 202 178
-1.254144e+02 -1.201886e+00 -2.833032e+01 135 134 132
-5.156227e+01 1.563865e+01 -7.348262e+01 61 61 22
-8.347020e+01 1.918932e+01 -9.562816e+01 255 255 225
-7.976245e+01 1.940368e+01 -9.341494e+01 243 242 222
-8.372252e+01 1.990503e+01 -9.556609e+01 255 254 244
-8.475884e+01 2.450383e+01 -9.546595e+01 127 90 81
-8.940509e+01 2.500326e+01 -9.806690e+01 129 96 81
-8.206842e+01 2.987353e+01 -9.241743e+01 163 105 87
-8.206842e+01 2.987353e+01 -9.241743e+01 163 105 87
1.024166e+01 -6.379305e+00 9.725273e+00 140 138 121
-1.244697e+00 -2.914048e+00 3.257235e+00 239 241 240
-9.772212e-01 -2.757820e+00 2.665770e+00 124 122 136
-1.273461e+00 -2.885134e+00 3.305163e+00 125 127 149
-1.473006e+00 -2.420135e+00 3.882076e+00 254 252 244
-1.795654e+00 -1.214749e+00 3.146751e+00 27 28 43
-1.898084e+00 -1.199920e+00 3.327346e+00 32 28 43
-1.886811e+00 -1.206303e+00 3.326841e+00 32 28 43
-1.671770e+01 9.606236e-01 -2.083373e+01 202 203 184
-8.946904e+01 -5.112045e+00 -4.956798e+00 208 114 115
-1.350699e+01 4.366148e-01 3.342127e+00 162 182 206
-9.228722e+01 -4.650262e+00 -6.811216e+00 106 75 54
-5.179442e+01 9.408509e+00 -5.725539e+01 113 101 89
-5.394527e+01 9.039993e+00 -5.578588e+01 180 173 141
-4.680116e+01 1.260930e+01 -6.850740e+01 245 234 201
-5.432383e+01 1.139824e+01 -6.041663e+01 132 136 80
-4.082103e+01 1.758095e+01 -7.566709e+01 235 211 161
-7.498123e+01 1.844862e+01 -9.079259e+01 121 116 111
-8.516086e+01 2.013078e+01 -9.646378e+01 185 181 170
-8.897598e+01 2.046517e+01 -9.878905e+01 180 173 162
-8.089873e+01 8.928952e+00 -3.671396e+01 170 199 205
-7.862655e+01 2.309301e+01 -9.138264e+01 231 226 186
-8.751975e+01 2.696052e+01 -9.654860e+01 234 169 137
-8.490037e+01 2.739348e+01 -9.496219e+01 229 162 142
-8.176334e+01 3.086406e+01 -9.214073e+01 253 188 158
-1.295081e+00 -3.002488e+00 3.307884e+00 249 250 246
-1.405690e+00 -2.982577e+00 3.586400e+00 254 254 254
-1.363058e+00 -2.938420e+00 3.518132e+00 121 125 138
-9.615718e-01 -2.735892e+00 2.605357e+00 253 253 253
-1.202279e+00 -2.841845e+00 3.138037e+00 130 127 153
-8.909591e-01 -2.650817e+00 2.440309e+00 129 130 143
-1.509767e+00 -2.875306e+00 3.742810e+00 251 250 242
-1.040479e+00 -2.625635e+00 2.730288e+00 106 111 125
-5.223915e-01 -5.418960e-01 -1.296209e+01 140 143 122
-1.136252e+00 -2.231517e+00 3.095534e+00 255 254 249
-1.212592e+00 -2.203667e+00 3.401220e+00 254 254 255
-1.180995e+00 -2.076409e+00 3.324407e+00 255 254 255
-9.390355e-01 -1.955919e+00 2.757561e+00 255 254 254
-1.004844e+00 -1.973178e+00 2.951884e+00 254 253 254
-1.761744e+00 -1.267615e+00 3.065000e+00 26 27 48
-1.697331e+00 -1.169689e+00 2.960267e+00 218 215 213
-1.643804e+01 1.284982e+00 -2.239155e+01 238 234 219
-2.815176e+01 4.208464e+00 -3.433056e+01 238 242 219
-2.815176e+01 4.208464e+00 -3.433056e+01 238 242 219
-2.192664e+01 8.933822e+00 -5.285039e+01 170 166 160
-8.952956e+00 7.498884e-01 2.242522e+00 159 180 207
-8.898365e+01 -5.392123e+00 -7.252374e+00 242 218 190
-4.391648e+01 1.465143e+01 -7.230435e+01 251 238 184
-4.270077e+01 1.742018e+01 -7.506539e+01 204 214 163
-7.437765e+01 1.858638e+01 -9.055584e+01 202 196 176
-4.352346e+01 1.772427e+01 -7.547913e+01 108 109 77
-5.514560e+01 1.648494e+01 -7.381066e+01 85 79 28
-5.767538e+01 1.845724e+01 -7.948732e+01 152 148 104
-4.091132e+01 1.932931e+01 -7.650596e+01 211 216 149
-4.212350e+01 1.931751e+01 -7.633992e+01 97 75 26
-4.212897e+01 1.931415e+01 -7.635181e+01 97 75 26
-1.256050e+01 3.317349e+00 -6.174464e-01 62 101 135
-1.448683e+01 2.642571e+00 2.436059e+00 42 65 86
-1.701354e+02 2.858470e+01 -1.444038e+02 212 214 170
-7.140499e+01 2.744037e+01 -8.720206e+01 245 181 143
-1.112062e+02 2.714753e+01 -1.108789e+02 192 162 123
-4.732756e+01 1.703779e+01 -7.543682e+01 66 66 34
-1.395079e+00 -8.673956e-01 1.793805e+00 22 22 20
-4.589633e+01 1.718093e+01 -7.501832e+01 84 82 41
-1.382198e+00 -2.685177e+00 3.552265e+00 233 220 205
-1.369468e+00 -2.623790e+00 3.556467e+00 225 216 195
-7.774851e-01 -1.886856e+00 2.440250e+00 223 218 208
-4.846742e+01 1.747407e+01 -7.459529e+01 159 160 107
-4.777906e+01 1.788836e+01 -7.585580e+01 70 50 29
-1.263590e+01 3.414494e+00 -5.191626e-01 58 82 114
-1.141755e+02 2.730452e+01 -1.124778e+02 196 155 127
-5.950046e+01 2.305464e+01 -8.474177e+01 198 177 146
-1.382472e+00 -2.811410e+00 3.513199e+00 229 225 209
-1.391689e+00 -2.818343e+00 3.505000e+00 229 225 209
-1.069408e+00 -2.594055e+00 2.802412e+00 203 193 180
-1.078723e+00 -2.590703e+00 2.805614e+00 203 193 180
-4.405260e+01 1.540210e+01 -7.420412e+01 138 108 62
-4.523253e+01 1.618361e+01 -7.496067e+01 68 45 19
-4.481713e+01 1.633928e+01 -7.515643e+01 90 70 33
-4.643080e+01 1.684737e+01 -7.501412e+01 90 87 42
-5.890894e+01 2.301446e+01 -8.726840e+01 83 70 53
-1.207359e+00 -2.151291e+00 3.375734e+00 100 94 96
-4.314127e+01 1.514641e+01 -7.329067e+01 168 156 83
-4.435373e+01 1.575246e+01 -7.457663e+01 111 78 42
-4.435373e+01 1.575246e+01 -7.457663e+01 111 78 42
-4.669850e+01 1.657851e+01 -7.495757e+01 61 43 23
-4.570472e+01 1.730510e+01 -7.532022e+01 32 34 13
-5.181514e+01 2.042548e+01 -8.084959e+01 81 82 38
-5.305822e+01 2.192866e+01 -8.285919e+01 78 90 31
-3.174323e+00 -3.634151e+00 5.441686e+00 240 237 230
-1.255474e+00 -2.751379e+00 3.206213e+00 198 208 211
-1.337133e+00 -2.736499e+00 3.408179e+00 231 227 215
-1.122383e+00 -2.082875e+00 3.203914e+00 110 103 100
-1.680967e+00 -1.127132e+00 2.907376e+00 29 22 21
-1.725649e+00 -1.105593e+00 2.993437e+00 51 47 40
-1.391399e+00 -2.917116e+00 3.604954e+00 196 208 208
-8.413051e-01 -2.667232e+00 2.367327e+00 214 208 198
-1.242282e+00 -2.666021e+00 3.214659e+00 205 208 201
-1.409461e+00 -2.702723e+00 3.595964e+00 231 227 216
-1.188262e+00 -2.259749e+00 3.214397e+00 232 205 189
-1.082998e+00 -2.116101e+00 3.092267e+00 103 92 88
-1.082785e+00 -2.117250e+00 3.091969e+00 103 92 88
-7.876737e-01 -1.977209e+00 2.385347e+00 199 180 160
-1.129646e+00 -2.044940e+00 3.234902e+00 230 220 213
-1.057137e+00 -2.014837e+00 3.080761e+00 89 84 81
-2.266189e+00 -1.289529e+00 3.683999e+00 114 113 100
-2.266189e+00 -1.289529e+00 3.683999e+00 114 113 100
-9.465734e-01 -2.099691e+00 2.800017e+00 252 251 246
-8.647252e-01 -2.335391e+00 2.431001e+00 101 116 156
-1.686861e+00 -1.180957e+00 2.836251e+00 19 23 35
-1.123831e+00 -2.463240e+00 2.979172e+00 236 235 233
-2.807435e+02 4.308486e+01 -2.107492e+02 178 160 123
8.981914e-01 -5.706949e+00 5.767428e+00 190 174 149
-2.747222e+02 4.098430e+01 -2.049406e+02 179 168 118
-1.174266e+00 -2.746275e+00 3.026725e+00 228 229 229
-9.665529e-01 -2.506007e+00 2.570575e+00 246 247 240
-1.327659e+00 -2.617629e+00 3.420446e+00 245 241 237
-6.726271e-01 -1.563431e+00 -1.181939e+00 7 7 8
-9.540005e-01 -1.939920e+00 2.848879e+00 252 251 251
-5.306004e+01 1.129992e+01 -6.058628e+01 190 182 138
-1.393922e+02 2.542322e+01 -1.275670e+02 242 234 194
-1.412115e+02 2.564828e+01 -1.284200e+02 247 230 185
-1.906617e+02 3.067976e+01 -1.557483e+02 199 197 143
-3.136708e+02 4.795078e+01 -2.162143e+02 248 249 251
-2.375713e+01 3.563291e+00 -6.709924e+00 117 135 129
-2.695431e+00 -1.649710e+00 4.743999e+00 175 179 165
-2.683235e+00 -1.644621e+00 4.764044e+00 175 179 165
-1.242345e+00 -2.903161e+00 3.244660e+00 210 206 184
-1.031525e+00 -2.745301e+00 2.777657e+00 205 209 176
-1.374838e+00 -2.388033e+00 3.622878e+00 224 195 167
-1.317243e+00 -2.367086e+00 3.488597e+00 223 199 161
-1.249811e+00 -2.334480e+00 3.333262e+00 169 64 59
-1.086785e+00 -2.232014e+00 2.962859e+00 93 34 38
-1.368755e+00 -2.414478e+00 3.588838e+00 161 64 67
-1.302575e+00 -2.334383e+00 3.471338e+00 176 58 65
-9.897017e-01 -2.315766e+00 2.698752e+00 125 128 101
-1.140940e+00 -2.107941e+00 3.231578e+00 199 196 182
-2.817012e+01 4.224613e+00 -3.430895e+01 216 211 186
-8.594964e-01 -2.441373e+00 2.404493e+00 33 35 36
-8.727754e-01 -2.412453e+00 2.442824e+00 112 112 104
-8.727754e-01 -2.412453e+00 2.442824e+00 112 112 104
-5.106829e+01 1.060158e+01 -6.059985e+01 156 147 129
-1.006484e+02 2.129020e+01 -1.057269e+02 250 251 237
-2.644005e+01 1.919833e+01 -7.087237e+01 85 86 31
-4.991952e+01 2.009055e+01 -8.084596e+01 255 230 152
-3.379008e+02 2.469451e+01 -1.279923e+02 85 99 119
-3.349319e+02 1.849174e+01 -1.346175e+02 45 44 51
-3.400462e+02 2.039196e+01 -1.427396e+02 60 66 76
-3.299642e+02 2.362235e+01 -1.425549e+02 255 255 255
-3.379274e+02 2.782756e+01 -1.388763e+02 95 112 133
-3.337084e+02 2.216510e+01 -1.400668e+02 239 241 226
-3.377094e+02 2.308950e+01 -1.297898e+02 254 255 251
-3.183272e+02 4.731483e+01 -2.106368e+02 110 126 160
-5.117041e+02 4.025358e+01 -2.441499e+02 214 214 190
-5.138499e+02 4.041225e+01 -2.452282e+02 214 214 190
-5.214302e+02 4.267636e+01 -2.532919e+02 71 78 101
-3.407107e+02 2.132260e+01 -1.239703e+02 254 255 252
-1.241036e+00 -2.501409e+00 3.288400e+00 253 252 248
-3.637617e+02 2.057073e+01 -1.413282e+02 202 206 188
-3.426240e+02 2.438348e+01 -1.516637e+02 38 50 60
-3.414718e+02 2.107286e+01 -1.226202e+02 255 253 250
-1.388560e+00 -2.574811e+00 3.605655e+00 255 254 254
-5.794635e+01 5.521787e-01 -6.103523e+00 203 199 187
-3.373193e+02 1.723539e+01 -1.235263e+02 192 194 180
-5.133777e+02 4.322677e+01 -2.458487e+02 144 163 175
-1.259874e+00 -2.634511e+00 3.262530e+00 118 123 154
-3.580788e+00 -2.270114e+00 5.987402e+00 255 253 246
-3.231731e+02 1.894880e+01 -1.323719e+02 179 180 179
-3.334972e+02 2.002745e+01 -1.327068e+02 209 210 197
-3.344825e+02 2.261097e+01 -1.379609e+02 92 84 104
-3.417372e+02 2.065988e+01 -1.217330e+02 255 245 243
-3.208604e+02 4.074579e+01 -2.030861e+02 68 66 54
-2.597371e+01 2.038533e+01 -7.334356e+01 205 227 130
-1.188936e+01 2.114586e+00 3.131470e+00 117 158 176
-3.557714e+02 2.465208e+01 -9.935288e+01 225 209 177
-5.602722e+01 7.542998e+00 -5.105646e+01 116 114 109
-3.378979e+02 2.772825e+01 -1.312942e+02 254 255 255
-4.610927e+00 -2.486771e+00 6.707904e+00 170 168 174
-5.114026e+00 -2.142602e+00 6.778962e+00 215 131 84
-3.430575e+02 2.526494e+01 -1.274345e+02 85 101 127
-3.361579e+02 3.062706e+01 -1.435778e+02 255 254 255
-3.631326e+02 2.865628e+01 -1.056352e+02 237 220 191
-4.169393e+00 -2.413557e+00 6.424437e+00 233 231 222
-2.681446e+00 -1.696862e+00 4.606554e+00 47 56 80
-5.368307e+00 -2.259758e+00 6.740051e+00 209 203 200
-9.119864e+00 7.349778e-01 2.079833e+00 155 180 210
-1.069316e+01 6.469109e-01 3.004637e+00 63 69 75
-2.205507e+02 -3.920411e+00 -3.159066e+01 255 226 198
-1.647623e+02 2.733860e+01 -1.400566e+02 252 253 248
-3.382723e+02 2.250692e+01 -1.276179e+02 255 255 255
-3.328606e+02 2.863016e+01 -1.374536e+02 76 92 126
-3.371615e+02 2.902830e+01 -1.393637e+02 76 92 126
-7.053416e+01 2.462406e+01 -8.574399e+01 124 73 69
-3.373320e+02 2.567341e+01 -8.527584e+01 71 63 47
-2.217799e+00 -3.112202e+00 3.966432e+00 31 31 35
-1.225663e+00 -2.134715e+00 3.538924e+00 254 254 254
-1.228163e+00 -2.138178e+00 3.539659e+00 254 254 254
-1.861442e+00 -1.210863e+00 3.330860e+00 30 32 50
-1.204778e+00 5.010265e-01 -9.127985e-01 42 40 51
-1.254331e+01 2.219254e+00 -3.105936e+00 63 104 132
-1.844649e+02 2.939446e+01 -1.511340e+02 254 253 242
-3.422276e+02 2.335107e+01 -1.274434e+02 111 115 138
-2.707360e+02 8.984065e+00 -4.789985e+01 201 198 143
-2.523744e+02 7.278949e+00 -3.585706e+01 219 208 147
-3.549657e+02 2.598077e+01 -9.480017e+01 121 117 94
-3.374969e+02 2.559407e+01 -8.628318e+01 224 208 174
-2.758790e+00 -3.093970e+00 5.635211e+00 255 202 63
-3.786769e+00 -2.375976e+00 6.440325e+00 237 235 222
-1.889773e+00 -1.382256e+00 3.279779e+00 132 147 164
-4.388202e+00 -1.636751e+00 6.662689e+00 19 21 47
-1.883318e+02 -4.786631e+00 -2.370192e+01 111 122 67
-3.396375e+02 2.528416e+01 -1.255503e+02 95 101 107
-3.932295e+00 -3.811924e+00 6.179502e+00 222 227 223
-6.847798e+00 -3.917046e+00 6.019423e+00 200 217 228
-1.810370e+00 -1.300555e+00 3.197218e+00 27 33 60
-4.387054e+00 -2.118481e+00 6.593779e+00 255 254 252
-2.339580e+02 -3.715713e+00 -2.811477e+01 153 148 120
-2.336192e+02 -3.508309e+00 -2.713968e+01 135 128 100
-3.396059e+02 2.004980e+01 -1.226716e+02 217 217 215
-3.404991e+02 2.004095e+01 -1.230309e+02 217 217 215
-3.407899e+02 2.039447e+01 -1.204699e+02 255 255 250
-3.312644e+02 2.729047e+01 -1.401308e+02 127 125 156
-3.130957e+02 4.767903e+01 -2.150750e+02 124 125 158
-1.086633e+00 -2.854704e+00 2.882035e+00 222 220 208
-1.281217e+00 -2.218110e+00 3.517400e+00 238 233 223
-4.564916e+00 -9.683185e-01 6.700145e-01 175 175 170
-3.346867e+00 -2.402023e+00 5.382352e+00 199 205 211
-1.038401e+00 -2.319862e+00 3.054952e+00 238 239 237
-4.663284e+00 1.414459e+00 -2.030653e+00 154 201 243
-2.403684e-01 -1.553603e+00 2.603896e-01 166 93 62
-1.360823e+00 -2.642024e+00 3.645116e+00 161 157 167
-1.768791e+00 -3.098018e+00 3.837667e+00 21 21 21
-1.768791e+00 -3.098018e+00 3.837667e+00 21 21 21
-6.117947e-01 -2.135488e+00 -3.962143e-01 167 180 186
-5.472213e+00 -2.055949e+00 -8.512165e+00 44 51 66
-2.040268e+00 -1.295223e+00 3.522573e+00 195 197 182
-8.750297e+01 -6.745744e+00 -3.597901e-01 164 60 63
-5.737133e+01 7.332141e+00 -4.793378e+01 226 215 181
-8.942125e-01 -2.246218e+00 6.685249e-01 17 19 18
-8.561342e-01 -2.236341e+00 6.368141e-01 17 19 18
-8.307708e-01 -1.831823e+00 2.272046e+00 106 106 111
-9.333591e+01 -1.000109e+01 1.153415e+01 183 173 148
-8.992015e+01 -8.015718e+00 5.886046e+00 105 107 92
-9.523366e+01 -1.086536e+01 1.446180e+01 184 175 146
-8.760797e+01 -7.136393e+00 1.279000e+00 243 113 99
-6.130682e-01 -2.069857e+00 3.231709e-01 255 253 254
-9.010920e+01 -8.688506e+00 6.782164e+00 152 146 124
-8.806916e+01 -7.694761e+00 3.016890e+00 255 128 115
-7.612212e+00 1.602387e+00 -8.825875e-01 130 164 199
-1.322619e+01 5.599333e-01 3.905305e+00 107 125 148
-3.178850e+00 -3.693255e+00 5.333009e+00 178 190 190
-5.567475e-01 -5.558070e-01 -1.270303e+01 239 240 239
-5.559688e-01 -5.570575e-01 -1.270277e+01 239 240 239
-5.947468e-01 -2.072584e+00 -1.360897e-01 119 125 124
-2.739818e+00 -1.562476e+00 4.821019e+00 44 46 59
-1.168352e+00 -5.640066e-01 1.458953e+00 29 29 43
-1.148741e+00 -5.592911e-01 1.477438e+00 29 29 43
-8.652450e+01 -8.133763e+00 3.105189e+00 103 99 81
-9.470639e+01 -1.053609e+01 1.366479e+01 108 106 91
-9.456315e+01 -1.029469e+01 1.315386e+01 166 158 134
-8.313129e+00 2.151754e+00 -3.907286e+00 163 208 250
-1.334150e+01 -8.899992e+00 1.564113e+01 194 166 137
-1.405052e+00 -9.667515e-01 -1.153525e+01 219 219 214
-1.259129e+00 -2.036809e+00 3.487937e+00 90 94 106
-1.903301e+00 -1.330926e+00 3.436978e+00 23 23 31
-1.755735e+00 -1.199300e+00 3.035895e+00 21 27 35
-1.922355e+00 -1.124801e+00 3.427501e+00 34 36 49
-1.716419e+00 -9.794390e-01 2.911566e+00 25 29 37
-1.016832e+00 -4.458697e-01 1.191505e+00 141 136 136
-8.978916e+01 -8.349303e+00 4.658048e+00 192 178 149
-8.827925e+01 -7.524876e+00 1.350322e+00 235 124 110
-8.804474e+01 -7.342866e+00 8.382065e-01 246 120 106
-1.465280e+02 -9.605447e+00 2.384638e+00 179 186 114
-1.258215e+01 3.225352e+00 -5.974573e-01 55 90 121
-3.172562e+02 4.464175e+01 -2.277875e+02 64 63 74
3.832109e+00 -3.050409e+00 -3.324166e+00 247 249 247
3.827820e+00 -3.051802e+00 -3.326715e+00 247 249 247
-1.289784e+00 -2.979921e+00 3.365400e+00 241 241 237
-1.116120e+00 -2.881244e+00 3.000069e+00 238 240 237
-3.934138e+00 -3.895017e+00 6.071437e+00 74 79 81
-2.118440e+00 -3.078220e+00 3.839799e+00 18 19 21
-1.207875e+00 -2.610603e+00 3.111198e+00 242 242 244
-8.430515e-01 -1.685476e+00 2.266264e+00 81 82 93
-2.692517e+00 -2.000070e+00 4.721235e+00 255 254 254
-1.075130e+00 -8.607651e-01 1.300244e+00 71 69 90
-2.712786e+00 -1.655766e+00 4.914898e+00 254 254 255
-9.529270e+01 -1.024246e+01 8.395909e+00 85 79 71
-9.711039e+01 -1.069159e+01 1.574627e+01 72 72 60
-9.924104e+01 -1.120339e+01 1.764869e+01 114 107 81
-9.570526e+01 -9.054101e+00 1.058701e+01 203 190 146
-8.953492e+01 -6.781248e+00 2.020330e+00 150 131 92
-7.713046e+00 1.974770e+00 -2.074820e+00 27 35 64
-8.945203e+01 -5.753660e+00 -1.746248e+00 108 100 68
-9.521179e+01 -6.823796e+00 2.454865e+00 166 155 110
-1.331575e+02 -1.191458e+01 1.721298e+01 253 253 253
-5.569723e+01 8.183451e+00 -5.244037e+01 197 186 155
-3.123880e+02 4.619121e+01 -2.252661e+02 115 116 114
9.050640e-01 -5.700847e+00 5.768145e+00 190 174 149
-3.876106e+00 -3.448322e+00 4.022064e+00 111 117 115
-9.022280e-01 -2.302231e+00 2.559466e+00 253 251 242
-4.216124e+00 -2.474361e+00 6.569061e+00 151 149 152
-1.761121e+01 3.787235e-01 -1.928250e+01 60 67 77
-1.806948e+01 3.674581e-01 -1.908270e+01 150 153 116
-1.830350e+01 3.105257e-01 -1.895760e+01 203 203 183
-1.460321e+01 2.109916e+00 -2.484758e+01 159 155 139
-1.613797e+01 1.518437e+00 -2.275117e+01 121 120 118
-1.428226e+01 2.294798e+00 -2.548625e+01 164 164 161
-9.711411e+01 -1.199219e+01 1.677845e+01 38 39 29
-9.184647e+01 -8.178863e+00 6.888116e+00 109 108 74
-8.947658e+01 -5.639775e+00 -2.278713e+00 80 68 45
-8.491121e+00 2.554210e+00 -4.369575e+00 176 196 207
-1.475095e+02 -9.407513e+00 -3.307875e-01 43 44 30
-1.475364e+02 -9.411526e+00 -3.335135e-01 43 44 30
-1.333995e+01 -8.882116e+00 1.553404e+01 26 28 20
-1.193124e+00 -2.931865e+00 3.043134e+00 234 232 223
-9.687238e-01 -2.755858e+00 2.669154e+00 119 116 128
-1.124585e+00 -2.787932e+00 2.954202e+00 119 118 138
-7.713863e-02 -3.647787e-01 -1.361936e+01 219 217 209
-3.698441e-01 -1.527541e+00 2.696518e-01 224 140 29
-1.842994e+00 -1.118158e+00 3.262984e+00 32 32 62
-6.129963e-01 -2.648745e-01 -7.435207e-01 204 204 194
-1.947562e+01 -3.319443e-01 -1.666137e+01 162 173 169
-1.676244e+01 9.539708e-01 -2.087609e+01 220 217 208
-1.479044e+01 2.059976e+00 -2.476571e+01 193 192 174
-6.548403e+01 -7.410555e+00 3.285411e+00 144 141 133
-2.826847e+01 4.087175e+00 -3.389756e+01 215 216 203
-9.045437e+01 -1.056279e+01 1.181017e+01 57 58 55
