ply
format ascii 1.0
element vertex 918
property float x
property float y
property float z
property uchar diffuse_red
property uchar diffuse_green
property uchar diffuse_blue
end_header
-2.977748e+01 1.811044e+01 -7.135052e+01 201 211 120
-2.554525e+01 1.856983e+01 -7.228567e+01 176 179 95
-2.734128e+01 1.953294e+01 -7.311939e+01 202 229 110
3.499938e+01 9.389179e+00 -3.317100e+01 151 126 69
3.499938e+01 9.389179e+00 -3.317100e+01 151 126 69
-2.272223e+01 2.014720e+01 -7.377000e+01 230 227 153
-2.227093e+01 2.015843e+01 -7.364258e+01 204 207 123
2.567193e+01 1.221701e+01 -4.044404e+01 159 150 94
-1.983577e+01 2.292657e+01 -7.174928e+01 248 246 225
4.251293e+01 1.881132e+01 -5.474625e+01 53 53 39
4.287066e+01 1.953860e+01 -5.715758e+01 237 235 215
-2.151666e+01 2.901180e+01 -7.094091e+01 255 254 253
-2.165746e+01 3.015799e+01 -7.077448e+01 255 253 231
-1.707346e+01 -2.487925e-01 2.905058e+00 233 248 250
-2.904977e+01 1.704149e+01 -6.924813e+01 96 116 49
-2.721718e+01 1.812840e+01 -7.188571e+01 79 99 22
-2.776452e+01 1.855522e+01 -7.115502e+01 205 225 146
-2.922127e+01 1.885684e+01 -7.142434e+01 190 213 126
-2.765374e+01 1.919355e+01 -7.189825e+01 231 253 184
3.773619e+01 9.468460e+00 -3.182707e+01 125 120 52
-2.122064e+01 2.004752e+01 -7.185567e+01 91 89 64
-2.120221e+01 2.011644e+01 -7.212297e+01 91 89 64
-2.006399e+01 2.015274e+01 -7.148495e+01 232 227 192
-2.112027e+01 2.070738e+01 -7.179183e+01 91 89 86
3.713793e+01 1.042324e+01 -3.335930e+01 210 209 108
3.713793e+01 1.042324e+01 -3.335930e+01 210 209 108
-2.269556e+01 2.703550e+01 -9.808784e+01 201 204 169
-2.269556e+01 2.703550e+01 -9.808784e+01 201 204 169
3.661752e+01 1.055082e+01 -3.375892e+01 109 96 43
-2.110333e+01 2.118329e+01 -7.179808e+01 87 80 70
-2.039919e+01 2.198860e+01 -7.120459e+01 255 254 246
-2.045899e+01 2.453499e+01 -7.077476e+01 255 254 244
-2.097622e+01 2.687879e+01 -7.064300e+01 255 254 245
1.457972e+01 3.122026e+01 -7.620572e+01 142 134 135
-2.194064e+01 3.018892e+01 -7.012898e+01 120 109 83
-3.015309e+01 1.676630e+01 -6.955075e+01 55 73 15
-2.788544e+01 1.731487e+01 -7.010700e+01 84 89 30
-2.788544e+01 1.731487e+01 -7.010700e+01 84 89 30
-2.542178e+01 1.833961e+01 -7.234295e+01 236 224 174
-2.863636e+01 1.891737e+01 -7.184887e+01 83 96 46
-2.165448e+01 1.879870e+01 -7.069458e+01 229 234 129
3.629785e+01 8.756796e+00 -3.124878e+01 145 133 73
-2.343760e+01 1.957716e+01 -7.251816e+01 226 226 139
2.610443e+01 1.099175e+01 -3.902891e+01 190 192 114
-2.160317e+01 1.999872e+01 -7.219821e+01 225 218 184
2.962663e+01 1.060660e+01 -3.668887e+01 135 126 44
3.300525e+01 1.052353e+01 -3.542639e+01 131 144 67
3.344536e+01 1.050237e+01 -3.505168e+01 105 99 40
2.692091e+01 1.194083e+01 -3.992756e+01 109 118 46
2.585196e+01 1.204089e+01 -4.025111e+01 123 120 58
-2.110784e+01 2.149382e+01 -7.151846e+01 186 181 160
3.641766e+01 1.185720e+01 -3.604539e+01 146 131 74
2.888170e+01 1.290291e+01 -4.006740e+01 136 128 51
3.779256e+01 1.153779e+01 -3.455582e+01 186 178 109
3.684876e+01 1.191533e+01 -3.526528e+01 161 172 85
4.048219e+01 1.649100e+01 -4.614149e+01 93 103 70
4.266590e+01 1.947300e+01 -5.660945e+01 240 238 221
4.318479e+01 1.882748e+01 -5.344034e+01 179 190 131
4.358621e+01 1.882186e+01 -5.329415e+01 212 218 180
4.356686e+01 1.896654e+01 -5.355901e+01 77 82 57
4.356686e+01 1.896654e+01 -5.355901e+01 77 82 57
-2.193288e+01 2.961020e+01 -7.045029e+01 240 226 198
1.419518e+01 3.113089e+01 -7.605763e+01 132 125 133
-3.887508e+00 -3.688449e+00 6.712458e+00 170 184 185
-3.433012e+01 3.282376e+01 -1.050873e+02 178 178 165
1.475740e+01 7.993717e+00 -3.931164e+01 207 212 215
-5.070365e+01 3.816034e+01 -1.058934e+02 149 147 138
-8.301485e+00 -4.187822e+00 5.796311e+00 116 117 112
-9.074742e+00 -3.736643e+00 5.528621e+00 155 166 173
-2.317028e+01 -2.062629e+00 -8.089144e-01 255 255 255
-2.339937e+01 -1.642454e+00 -8.445928e-01 79 80 82
6.163523e+00 1.278004e+01 -5.046731e+01 235 234 138
1.492309e+01 1.520129e+01 -4.966105e+01 230 236 115
-4.904628e+01 3.456024e+01 -1.083074e+02 232 205 173
-4.904628e+01 3.456024e+01 -1.083074e+02 232 205 173
-2.359904e+01 -3.268926e+00 -1.336439e+00 208 208 206
1.416072e+01 8.281730e+00 -1.985279e+02 17 16 16
-2.279160e+01 1.991123e+00 3.493054e-03 231 238 244
5.174536e+00 1.247401e+01 -4.999507e+01 177 177 113
5.174954e+00 1.246891e+01 -4.999629e+01 177 177 113
1.518078e+01 1.214222e+01 -4.590130e+01 249 239 162
1.484943e+01 1.383736e+01 -4.795246e+01 175 192 86
1.478800e+01 1.376899e+01 -4.770426e+01 175 192 86
1.042135e+01 1.476189e+01 -5.093089e+01 231 233 129
1.259739e+01 1.567506e+01 -5.236911e+01 161 158 101
-3.110843e+00 2.531618e+01 -8.808848e+01 250 248 235
3.535608e+00 2.482686e+01 -8.496857e+01 250 250 236
5.754970e+00 2.415279e+01 -8.192008e+01 255 254 251
-1.972784e+01 3.229496e+01 -9.599654e+01 247 245 229
-5.252021e+01 3.565747e+01 -1.031487e+02 227 210 165
-4.745166e+01 3.956736e+01 -1.109927e+02 255 255 255
-2.316635e+01 -3.591023e+00 -1.144603e+00 204 210 210
-2.491303e+01 -3.012871e+00 -1.653005e+00 134 134 129
-1.144471e+01 -3.352365e+00 4.595900e+00 147 162 164
-2.271738e+01 -2.211586e+00 -5.980893e-01 200 209 212
1.243559e+01 9.833380e+00 -4.326919e+01 158 172 91
8.047660e+00 1.136404e+01 -4.715919e+01 123 131 77
8.047660e+00 1.136404e+01 -4.715919e+01 123 131 77
4.985338e+00 1.348004e+01 -5.168825e+01 157 149 86
1.774093e+01 1.307944e+01 -4.594945e+01 198 209 113
1.553014e+01 1.389352e+01 -4.792307e+01 216 215 119
1.142917e+01 1.607776e+01 -5.317091e+01 223 206 136
-4.889502e+01 3.299767e+01 -1.088692e+02 255 227 197
-2.000595e+01 2.390674e+01 -7.106845e+01 254 254 253
-1.953765e+01 3.178461e+01 -9.632492e+01 179 183 166
-4.799015e+01 3.646791e+01 -1.093190e+02 115 96 84
1.128749e+01 2.018761e+01 -5.258275e+01 127 121 125
1.128749e+01 2.018761e+01 -5.258275e+01 127 121 125
-4.727784e+01 3.789397e+01 -1.108499e+02 254 255 255
1.070506e+01 8.660470e+00 -4.177172e+01 222 226 220
1.164715e+01 8.696505e+00 -4.166814e+01 237 230 228
1.504763e+01 8.755744e+00 -4.070660e+01 114 111 76
1.161483e+01 9.012578e+00 -4.207433e+01 176 179 115
1.132356e+01 9.310172e+00 -4.267185e+01 222 198 139
1.276409e+01 1.046785e+01 -4.406963e+01 172 175 99
1.307539e+01 1.056401e+01 -4.410182e+01 225 218 141
1.435032e+00 1.214664e+01 -5.136708e+01 254 233 183
6.007673e+00 1.165272e+01 -4.854197e+01 225 215 128
-8.847409e-01 1.267054e+01 -5.204116e+01 195 189 152
-6.882461e+01 2.309845e+01 -8.862603e+01 138 126 100
-6.689788e+01 2.293955e+01 -8.774820e+01 163 150 117
1.321583e+01 1.441587e+01 -4.936454e+01 166 189 101
1.658107e+01 1.427219e+01 -4.790488e+01 210 199 122
1.562420e+01 1.444634e+01 -4.852351e+01 104 98 47
9.746566e+00 1.587482e+01 -5.343903e+01 176 189 104
-5.713056e+01 3.014215e+01 -9.504291e+01 217 199 164
-5.670620e+01 3.112063e+01 -9.564641e+01 212 179 139
-5.230456e+01 3.473160e+01 -1.028714e+02 255 236 206
-5.647627e+01 3.336063e+01 -9.505189e+01 237 226 170
-5.276684e+01 3.514441e+01 -1.017933e+02 126 113 91
-5.007823e+01 3.619160e+01 -1.058236e+02 237 229 196
1.214676e+01 8.640077e+00 -4.130229e+01 236 239 239
8.883700e+00 9.214655e+00 -4.361627e+01 151 151 123
1.087112e+01 8.990335e+00 -4.234643e+01 100 98 78
1.461948e+01 8.967364e+00 -4.113966e+01 223 218 153
1.683037e+01 9.437574e+00 -4.116575e+01 222 218 144
5.630888e+00 1.114315e+01 -4.830084e+01 229 224 131
5.630888e+00 1.114315e+01 -4.830084e+01 229 224 131
1.304158e+01 1.058764e+01 -4.403571e+01 221 212 134
7.932905e+00 1.169076e+01 -4.780467e+01 206 217 131
6.918904e+00 1.241429e+01 -4.906237e+01 177 170 109
-6.280470e+01 2.281615e+01 -8.667444e+01 110 107 102
1.071220e+01 1.339316e+01 -4.886283e+01 177 161 95
1.341658e+01 1.310581e+01 -4.741647e+01 206 219 129
3.450239e+00 1.623051e+01 -5.648519e+01 228 227 147
1.637814e+01 1.522880e+01 -4.931062e+01 238 238 129
4.048794e+00 2.457594e+01 -8.428020e+01 164 164 160
4.048794e+00 2.457594e+01 -8.428020e+01 164 164 160
-4.796679e+01 3.464619e+01 -1.104129e+02 124 97 82
-4.927523e+01 3.432890e+01 -1.079203e+02 247 219 195
-5.280423e+01 3.456256e+01 -1.015277e+02 222 198 162
-4.891698e+01 4.047430e+01 -1.074725e+02 244 206 180
-2.534849e+01 -8.723488e-01 -1.402880e+00 20 28 18
9.920510e+00 9.374993e+00 -4.331861e+01 147 130 86
-8.851420e+00 1.664888e+00 1.232550e+00 50 54 65
6.387335e+00 1.063121e+01 -4.665602e+01 170 182 82
9.289334e+00 1.085327e+01 -4.628952e+01 140 124 75
1.248062e+01 1.033949e+01 -4.346224e+01 161 158 91
1.224810e+01 1.042122e+01 -4.398603e+01 135 146 60
6.116748e+00 1.133789e+01 -4.802695e+01 118 116 50
2.646860e+00 1.183326e+01 -5.022115e+01 239 226 169
2.646860e+00 1.183326e+01 -5.022115e+01 239 226 169
-1.667288e-01 1.270735e+01 -5.215183e+01 62 65 36
-1.662447e-01 1.271426e+01 -5.216749e+01 62 65 36
-6.006395e-01 1.295709e+01 -5.219453e+01 52 39 34
1.304537e+01 1.150036e+01 -4.543646e+01 145 138 72
1.460896e+01 1.141092e+01 -4.487171e+01 224 213 125
1.374945e+01 1.148016e+01 -4.473772e+01 236 231 147
9.641076e+00 1.226255e+01 -4.757635e+01 217 219 140
6.011933e+00 1.273806e+01 -4.981889e+01 249 252 150
7.337118e-02 1.337156e+01 -5.248981e+01 211 223 162
7.973726e+00 1.287922e+01 -4.933587e+01 135 146 78
6.897867e+00 1.325959e+01 -5.020534e+01 236 242 115
-6.291749e+01 2.309594e+01 -8.795407e+01 100 86 84
-6.257171e+01 2.302755e+01 -8.669962e+01 219 212 175
6.418371e+00 1.389654e+01 -5.157552e+01 218 220 117
-6.251959e+01 2.337477e+01 -8.637703e+01 232 219 187
1.583333e+01 1.290633e+01 -4.651175e+01 157 173 81
7.160307e+00 1.397735e+01 -5.137273e+01 190 178 102
3.927106e+00 1.454160e+01 -5.366255e+01 165 169 94
1.724585e+01 1.307006e+01 -4.615796e+01 131 128 60
1.707289e+01 1.337505e+01 -4.672069e+01 247 234 166
4.794000e+00 1.595551e+01 -5.461628e+01 229 239 154
1.534172e+01 1.475684e+01 -4.947599e+01 231 225 113
1.586920e+01 1.485796e+01 -4.930561e+01 223 219 112
3.858123e+00 2.473745e+01 -8.369454e+01 251 248 241
3.821719e+00 2.465660e+01 -8.343139e+01 251 248 241
-5.672895e+01 3.022567e+01 -9.575164e+01 238 217 172
-5.182323e+01 3.251327e+01 -1.043238e+02 254 243 218
-4.748219e+01 3.401428e+01 -1.104723e+02 237 210 187
-5.152613e+01 3.327403e+01 -1.049614e+02 236 237 231
-5.152613e+01 3.327403e+01 -1.049614e+02 236 237 231
-5.255610e+01 3.279270e+01 -1.029132e+02 250 232 201
1.159368e+01 1.824523e+01 -5.250926e+01 127 122 85
-5.144327e+01 3.349871e+01 -1.045659e+02 237 242 239
-4.985984e+01 3.716308e+01 -1.061335e+02 235 228 201
-5.155003e+01 3.682489e+01 -1.037273e+02 250 252 250
-6.600097e+01 3.330732e+01 -8.440127e+01 146 93 80
-7.793685e+00 -4.644661e+00 5.660036e+00 232 233 233
4.591306e+00 -2.833526e+00 -3.089192e+00 189 194 186
-2.284467e+01 -2.363063e+00 -6.569139e-01 142 141 126
1.575175e+01 7.306274e+00 -3.815179e+01 144 132 131
-1.254051e+01 7.744970e-01 4.279636e+00 190 209 234
1.112985e+01 8.958917e+00 -4.243498e+01 94 98 80
1.320691e+01 8.669069e+00 -4.074749e+01 144 143 109
6.432934e+00 1.042880e+01 -4.651913e+01 252 241 177
5.283542e+00 1.120960e+01 -4.826525e+01 253 242 176
5.211774e+00 1.147314e+01 -4.820174e+01 228 230 133
1.234099e+01 1.069872e+01 -4.432947e+01 222 224 126
9.170970e+00 1.117730e+01 -4.591848e+01 222 217 127
1.160839e+01 1.102096e+01 -4.498493e+01 232 227 120
9.810215e-01 1.254643e+01 -5.217295e+01 142 98 61
6.776103e+00 1.186990e+01 -4.842441e+01 254 249 185
-5.127089e-01 1.269420e+01 -5.207715e+01 67 63 49
-3.666983e-01 1.276081e+01 -5.189827e+01 199 203 157
-3.518497e-01 1.279187e+01 -5.203437e+01 199 203 157
-8.134318e-02 1.313302e+01 -5.207361e+01 45 50 23
1.297138e+00 1.379342e+01 -5.394669e+01 255 251 187
1.118891e+01 1.248679e+01 -4.709184e+01 224 218 118
6.644414e+00 1.342360e+01 -5.072060e+01 169 174 63
-6.415775e+01 2.279379e+01 -8.609775e+01 92 89 76
5.882058e+00 1.394366e+01 -5.212075e+01 231 228 125
-6.279761e+01 2.319956e+01 -8.637695e+01 119 115 107
3.590106e+00 1.445051e+01 -5.374609e+01 192 198 101
1.433989e+00 1.492891e+01 -5.580810e+01 230 230 153
7.780926e+00 1.392482e+01 -5.108314e+01 95 98 40
1.380962e+01 1.327639e+01 -4.771213e+01 212 213 138
9.883970e+00 1.376176e+01 -4.967809e+01 220 207 138
1.249020e+01 1.322431e+01 -4.710487e+01 169 169 85
3.164151e-01 1.560064e+01 -5.693292e+01 236 230 162
1.738559e+01 1.308626e+01 -4.600258e+01 222 225 140
1.732789e+01 1.305428e+01 -4.580194e+01 222 225 140
2.478168e+00 1.559329e+01 -5.594741e+01 222 225 142
5.272635e+00 1.539241e+01 -5.442303e+01 245 241 138
1.420573e+01 1.415882e+01 -4.879242e+01 225 221 121
-7.688469e-01 1.650564e+01 -5.874160e+01 194 186 110
1.091827e+01 1.505806e+01 -5.162358e+01 225 232 119
-5.977348e+01 2.573068e+01 -9.071946e+01 255 235 204
-5.977348e+01 2.573068e+01 -9.071946e+01 255 235 204
4.058980e+00 1.646482e+01 -5.658660e+01 160 153 78
4.058980e+00 1.646482e+01 -5.658660e+01 160 153 78
1.031483e+01 1.641459e+01 -5.432019e+01 227 228 139
1.002673e+01 1.653109e+01 -5.478186e+01 213 213 120
-5.720405e+01 2.800673e+01 -9.549043e+01 234 222 170
1.201616e+01 1.676184e+01 -5.295349e+01 255 255 222
-5.175391e+01 3.201563e+01 -1.044384e+02 248 229 210
-5.717918e+01 3.008727e+01 -9.470515e+01 234 210 175
-5.713066e+01 3.032918e+01 -9.442069e+01 233 218 177
-5.708025e+01 3.054854e+01 -9.531578e+01 227 203 170
-5.178774e+01 3.363167e+01 -1.040070e+02 255 242 222
-5.223632e+01 3.361948e+01 -1.023715e+02 157 142 106
-5.401152e+01 3.363663e+01 -9.960583e+01 226 215 153
-5.139428e+01 3.484555e+01 -1.039117e+02 248 251 251
-5.775351e+01 3.230001e+01 -9.324501e+01 255 238 202
-5.776525e+01 3.230863e+01 -9.327605e+01 255 238 202
-4.933523e+01 3.823588e+01 -1.070276e+02 254 226 209
-5.116344e+01 3.750215e+01 -1.036689e+02 238 238 230
-4.946466e+01 3.969530e+01 -1.067307e+02 248 219 194
-6.319884e+01 3.356612e+01 -8.445196e+01 204 186 167
-4.082465e+00 -2.125002e+00 6.152426e+00 255 255 255
-1.023887e+01 -2.640198e+00 4.386465e+00 153 168 175
-1.566384e+01 4.434426e+00 -4.210051e+00 181 200 154
-4.721258e+00 -1.945609e+00 7.319633e+00 239 146 83
-1.177293e+01 4.142686e-01 4.782606e+00 253 253 254
-8.758784e+00 -3.022986e+00 5.797260e+00 26 28 29
-7.813667e+00 -3.682129e+00 6.058595e+00 182 192 199
-7.793124e+00 -3.681920e+00 6.035655e+00 182 192 199
-7.926642e+00 -4.821068e+00 5.812099e+00 135 143 149
2.589982e+01 1.257695e+01 -4.137314e+01 187 176 108
-8.681935e+00 -3.839408e+00 5.777170e+00 172 183 187
-8.681935e+00 -3.839408e+00 5.777170e+00 172 183 187
-7.512255e+00 -3.613768e+00 6.258350e+00 187 194 203
-4.365900e+00 -2.039565e+00 7.425459e+00 254 255 253
-1.640132e+01 -5.147729e-02 3.117409e+00 241 250 254
-7.899885e+00 -3.052830e+00 6.193894e+00 217 224 223
-8.291349e+00 -3.378669e+00 5.995229e+00 200 210 219
1.552858e+01 -6.669854e-01 -8.945573e+00 121 123 116
2.513068e+01 1.106529e+01 -3.951748e+01 91 89 58
-1.754529e+01 -1.558384e+00 2.450163e+00 192 211 223
-1.143927e+01 -2.130427e+00 5.021396e+00 210 223 221
-1.140880e+01 -2.087427e+00 4.886199e+00 19 29 46
1.378997e+01 -1.748693e+00 -5.507278e+00 205 213 204
-6.879888e+00 -4.782886e+00 6.228565e+00 72 73 72
-7.789964e+00 -2.994007e+00 6.243303e+00 137 144 160
2.635975e+01 1.228045e+01 -4.019871e+01 147 142 77
-1.790467e+01 3.607632e+00 1.640261e+00 92 117 132
7.303499e+00 1.351430e+01 -5.070925e+01 207 198 78
-8.803874e+00 -2.757305e+00 5.874388e+00 150 146 136
1.379558e+01 1.049061e+01 -4.408826e+01 139 122 63
1.341766e+01 1.310564e+01 -4.741850e+01 202 212 118
1.491282e+01 1.266925e+01 -4.647234e+01 227 199 135
6.419483e+00 1.295791e+01 -5.017721e+01 98 88 27
6.852347e+00 1.328707e+01 -5.032200e+01 216 212 92
6.852347e+00 1.328707e+01 -5.032200e+01 216 212 92
-7.416081e+00 -4.237225e+00 6.102670e+00 77 78 79
1.439345e+01 9.292274e+00 -4.177847e+01 116 98 34
1.535079e+01 1.452585e+01 -4.889210e+01 79 61 16
-8.059328e+00 -5.002517e+00 5.653042e+00 161 154 146
-8.634367e+00 -4.965432e+00 5.373237e+00 169 158 150
-8.793900e+00 -4.899472e+00 5.325986e+00 160 152 139
-9.180311e+00 -4.588618e+00 5.223221e+00 183 176 169
-8.420617e+00 -2.732138e+00 6.051342e+00 145 136 130
1.821764e+01 1.417159e+01 -4.708470e+01 190 162 105
-7.702135e+00 -3.093176e+00 6.292019e+00 154 150 144
-3.025342e+00 6.494280e-01 3.189432e+00 126 115 113
-5.028819e+01 3.081267e+01 -1.072579e+02 238 226 201
-3.160932e+00 6.346583e-01 3.288785e+00 133 117 120
-5.291718e+01 3.095950e+01 -1.027634e+02 247 216 175
-4.978436e+01 3.219227e+01 -1.076006e+02 230 212 192
-5.052074e+01 3.194163e+01 -1.066709e+02 127 125 121
-4.743811e+01 3.427099e+01 -1.115037e+02 131 116 109
-5.059353e+01 3.441955e+01 -1.060383e+02 124 124 116
-5.059353e+01 3.441955e+01 -1.060383e+02 124 124 116
-2.629895e+01 6.486954e-01 -2.326516e+00 167 191 210
-2.422230e+01 -2.435459e+00 -1.351377e+00 171 179 188
-1.983870e+01 1.995747e+01 -7.132481e+01 128 128 95
-1.098531e+01 -3.410733e+00 4.761075e+00 145 158 171
-2.119129e+01 -2.476584e+00 2.649630e-01 114 130 141
-5.378633e+01 3.616106e+01 -9.927598e+01 169 157 124
-5.378633e+01 3.616106e+01 -9.927598e+01 169 157 124
-5.337681e+01 3.753194e+01 -9.997205e+01 218 210 167
-2.086179e+01 1.761461e+01 -6.918109e+01 212 218 183
-2.086291e+01 1.761648e+01 -6.918225e+01 212 218 183
-5.853937e+01 3.116828e+01 -9.277044e+01 250 231 198
-4.817390e+01 3.918627e+01 -1.089656e+02 246 221 191
-5.049537e+01 3.728008e+01 -1.053756e+02 225 215 194
-4.741003e+01 3.243439e+01 -1.120551e+02 137 122 115
-5.429184e+01 3.236828e+01 -9.974511e+01 237 204 170
-4.986707e+01 3.532740e+01 -1.067375e+02 228 216 189
-4.126729e+01 3.695779e+01 -1.089282e+02 207 204 185
-5.012132e+01 3.846768e+01 -1.055573e+02 165 150 130
-8.303399e+00 -3.651155e+00 5.776235e+00 174 183 189
3.851603e+01 8.936071e+00 -3.042000e+01 168 164 87
-2.391412e+01 -1.691836e+00 -1.064941e+00 30 27 28
-2.290122e+01 1.928602e+00 -1.503218e-01 203 225 246
-2.292848e+01 -2.692428e+00 -7.582020e-01 241 240 241
3.533818e+01 1.423144e+01 -4.159705e+01 192 192 114
-7.486579e+00 -4.296651e+00 6.089523e+00 146 154 158
-8.073650e+00 -3.876245e+00 5.969443e+00 99 100 94
-2.832439e+01 7.807008e-02 -2.672893e+00 118 137 153
4.395747e+01 8.611429e+00 -2.790393e+01 140 151 80
4.301571e+01 2.008145e+01 -5.639838e+01 225 219 203
4.488167e+01 1.776882e+01 -3.261827e+01 84 83 79
-2.350710e+01 -2.262199e+00 -9.013551e-01 187 195 206
-2.350710e+01 -2.262199e+00 -9.013551e-01 187 195 206
-2.144874e+01 -2.423319e+00 1.857822e-01 131 145 158
-2.248158e+01 -1.379786e+00 -3.930427e+00 27 27 37
4.021896e+01 8.704710e+00 -2.940550e+01 126 139 65
3.801420e+01 9.285371e+00 -3.119502e+01 76 73 37
3.801420e+01 9.285371e+00 -3.119502e+01 76 73 37
4.079424e+01 9.258936e+00 -2.967944e+01 40 35 34
4.022737e+01 1.132728e+01 -3.358548e+01 165 162 78
4.036044e+01 1.163802e+01 -3.306568e+01 73 70 50
4.129945e+01 1.660541e+01 -4.573970e+01 237 236 216
5.725654e+01 1.824481e+01 -5.106840e+01 224 220 206
-8.833351e+00 -3.973281e+00 5.611821e+00 172 177 181
-8.210437e+00 -3.725640e+00 5.932916e+00 174 182 194
-2.595018e+01 2.001469e+00 -1.457921e+00 57 76 99
-2.595018e+01 2.001469e+00 -1.457921e+00 57 76 99
3.629159e+01 7.021837e+00 -2.815326e+01 100 114 49
-1.544033e+01 1.605756e+01 -6.397476e+01 184 179 115
-1.542711e+01 1.673948e+01 -6.542428e+01 212 197 137
4.231400e+01 8.374211e+00 -2.808958e+01 140 142 81
4.102370e+01 1.141540e+01 -3.265033e+01 62 67 47
5.950935e+01 1.808140e+01 -4.962078e+01 235 232 214
-7.937527e+00 -2.938806e+00 6.119535e+00 29 31 34
-1.719631e+01 -1.088489e-01 2.828003e+00 158 168 190
3.934439e+01 5.705045e+00 -2.487305e+01 74 73 65
3.604833e+01 7.301816e+00 -2.933095e+01 91 92 62
-1.746613e+01 1.721540e+01 -6.748672e+01 124 125 68
-1.603723e+01 1.711893e+01 -6.606629e+01 196 184 134
3.058307e+01 9.306435e+00 -3.474338e+01 172 182 98
3.221596e+01 9.276743e+00 -3.330459e+01 110 109 57
4.105886e+01 8.605359e+00 -2.934350e+01 96 85 61
-1.243260e+01 1.773453e+01 -6.545523e+01 197 190 120
-1.689959e+01 1.870934e+01 -6.876351e+01 228 210 165
4.319646e+01 8.482520e+00 -2.756288e+01 121 140 58
4.353297e+01 8.832482e+00 -2.810063e+01 68 47 41
4.236882e+01 9.077275e+00 -2.818384e+01 48 37 28
3.716092e+01 1.068805e+01 -3.391624e+01 181 169 102
4.230799e+01 9.502407e+00 -2.789206e+01 49 50 37
3.394275e+01 1.155223e+01 -3.650128e+01 113 121 60
3.897928e+01 1.079054e+01 -3.309273e+01 79 82 39
4.407012e+01 1.828770e+01 -5.374191e+01 95 91 58
3.791872e+01 5.830080e+00 -2.586461e+01 107 103 95
3.799900e+01 6.006924e+00 -2.641223e+01 105 102 68
3.515866e+01 6.628914e+00 -2.841668e+01 171 175 107
-1.567091e+01 1.620354e+01 -6.478720e+01 135 136 76
3.413582e+01 7.996264e+00 -3.108814e+01 123 130 70
4.108705e+01 7.473148e+00 -2.769378e+01 74 69 43
-1.359035e+01 1.664800e+01 -6.438411e+01 190 180 113
-1.612997e+01 1.755062e+01 -6.693543e+01 141 130 77
3.788699e+01 8.771635e+00 -3.158443e+01 116 107 66
-1.546915e+01 1.820658e+01 -6.750078e+01 102 81 40
-1.721541e+01 1.858941e+01 -6.886110e+01 116 107 66
3.967870e+01 9.348607e+00 -3.072020e+01 71 69 46
3.550191e+01 1.038087e+01 -3.396075e+01 203 203 92
3.550191e+01 1.038087e+01 -3.396075e+01 203 203 92
3.563229e+01 1.110717e+01 -3.507436e+01 204 174 130
4.080279e+01 1.176423e+01 -3.356510e+01 82 76 58
3.951457e+01 1.235337e+01 -3.527476e+01 193 182 94
4.280182e+01 1.116485e+01 -2.859222e+01 178 168 135
6.250512e+01 1.692043e+01 -4.469094e+01 80 81 58
-2.438607e+01 -2.265412e+00 -1.467409e+00 121 111 97
-7.966981e+00 -3.878198e+00 6.065827e+00 181 187 175
-7.537560e+00 -3.490143e+00 6.106487e+00 81 90 94
-2.511092e+01 -7.051056e-01 -9.121261e-01 159 171 156
-2.263324e+01 5.333608e-01 3.976755e-01 115 120 126
3.470822e+01 7.364488e+00 -3.016051e+01 192 185 130
-1.765013e+01 1.647804e+01 -6.645559e+01 205 204 118
-1.497784e+01 1.613004e+01 -6.438021e+01 197 196 117
3.040400e+01 8.712899e+00 -3.386148e+01 62 60 29
3.976267e+01 8.344275e+00 -2.949260e+01 86 82 50
3.472250e+01 9.283802e+00 -3.317336e+01 209 200 122
-1.743077e+01 1.842570e+01 -6.879696e+01 217 198 147
4.322941e+01 8.585486e+00 -2.833057e+01 60 43 33
-1.331751e+01 1.805081e+01 -6.614651e+01 200 194 132
3.818971e+01 9.406578e+00 -3.125385e+01 84 89 45
-1.419652e+01 1.878532e+01 -6.794740e+01 138 127 61
4.227243e+01 9.231199e+00 -2.846522e+01 184 192 142
4.131165e+01 9.860875e+00 -2.877885e+01 48 47 34
4.108894e+01 9.968253e+00 -2.899145e+01 208 211 171
4.108894e+01 9.968253e+00 -2.899145e+01 208 211 171
3.009005e+01 1.232056e+01 -3.884419e+01 111 99 34
3.009005e+01 1.232056e+01 -3.884419e+01 111 99 34
4.323003e+01 1.083469e+01 -2.832340e+01 215 220 157
4.205719e+01 1.101280e+01 -2.883664e+01 198 220 169
4.343977e+01 1.091517e+01 -2.827499e+01 87 69 31
5.982847e+01 1.793760e+01 -4.914690e+01 97 100 76
1.125430e+01 2.116625e+01 -5.212023e+01 199 188 157
1.445857e+01 3.113632e+01 -7.591587e+01 138 126 130
-2.378929e+01 -3.590849e+00 -1.450392e+00 206 208 208
-2.288141e+01 -3.245916e+00 -1.089724e+00 247 248 237
-2.321132e+01 -2.615005e+00 -8.355135e-01 18 21 58
2.958555e+01 8.610954e+00 -3.428231e+01 141 127 73
4.177881e+01 7.236820e+00 -2.694552e+01 122 94 65
3.147462e+01 9.343637e+00 -3.430782e+01 210 209 123
-1.718740e+01 1.838237e+01 -6.898380e+01 229 215 158
-1.703687e+01 1.904729e+01 -6.919118e+01 241 221 185
3.004413e+01 1.147000e+01 -3.800162e+01 188 173 121
4.148598e+01 9.436983e+00 -2.891123e+01 169 174 146
3.417684e+01 1.115834e+01 -3.588073e+01 194 184 118
3.153917e+01 1.182109e+01 -3.754604e+01 93 95 37
2.978102e+01 1.234633e+01 -3.871317e+01 115 107 39
3.586089e+01 1.219178e+01 -3.669314e+01 105 103 52
4.117104e+01 1.220085e+01 -3.385852e+01 78 68 46
5.990798e+01 1.818035e+01 -4.920347e+01 228 230 206
6.270480e+01 1.768357e+01 -4.495928e+01 105 103 70
1.441513e+01 3.080450e+01 -7.548147e+01 241 233 225
-1.200442e+01 -4.129484e+00 3.573676e+00 13 13 13
-8.303946e+00 -3.707666e+00 5.963388e+00 151 160 174
-1.118057e+01 -2.832333e+00 5.021660e+00 135 148 156
-2.471205e+01 -5.894097e-01 -1.153279e+00 22 23 22
-2.646250e+00 -3.522949e+00 6.180003e+00 248 253 249
-6.674541e+00 -2.253863e+00 7.043215e+00 230 240 249
-5.604060e+01 3.100024e+01 -1.002007e+02 255 249 208
-6.287334e+00 -4.749756e+00 5.383167e+00 14 14 14
-1.062786e+01 -3.666857e+00 4.764400e+00 152 152 141
-8.892663e+01 2.656747e+01 -9.978541e+01 244 175 142
-8.892663e+01 2.656747e+01 -9.978541e+01 244 175 142
-1.889597e+01 3.136050e+01 -9.615365e+01 175 175 161
-4.636155e+00 -7.425541e+00 1.296832e+01 173 170 170
-1.219370e+00 -3.192275e+00 4.474378e+00 158 169 161
-9.378194e+00 -3.571048e+00 5.406234e+00 177 170 158
-2.296467e+00 -1.574344e+00 5.592310e+00 254 254 254
-9.125871e+01 2.447650e+01 -1.014326e+02 210 203 169
-8.647027e+01 2.541097e+01 -9.856148e+01 93 68 64
-9.258235e+01 2.795286e+01 -1.017293e+02 109 69 66
-9.258235e+01 2.795286e+01 -1.017293e+02 109 69 66
-9.438991e+01 3.507397e+01 -1.002670e+02 118 72 64
-9.312985e+00 -4.153564e+00 5.229170e+00 199 197 193
-9.246300e+00 -2.839494e+00 5.609444e+00 54 52 53
-2.145211e+00 -1.106878e+00 5.796888e+00 210 215 218
7.311548e+00 1.356638e+01 -5.087786e+01 234 232 117
-8.906770e+01 2.323286e+01 -1.001569e+02 241 236 216
-8.849025e+01 2.428339e+01 -9.956397e+01 108 107 102
-8.521182e+01 2.423121e+01 -9.753682e+01 90 91 79
-9.057150e+01 2.549193e+01 -1.009119e+02 91 79 72
-9.332777e+01 2.678758e+01 -1.019935e+02 240 179 149
-9.422824e+01 2.827835e+01 -1.023514e+02 234 164 131
-9.304361e+01 2.910208e+01 -1.012196e+02 117 77 66
-9.406630e+01 3.220133e+01 -1.011528e+02 112 67 62
-9.231366e+01 3.221946e+01 -9.987023e+01 246 185 148
-8.682811e+00 -4.669555e+00 5.416444e+00 22 21 28
-4.302356e+00 -2.020232e+00 7.144506e+00 254 253 253
-2.426713e+01 -1.766758e+00 -1.259538e+00 233 234 223
6.567065e+00 1.109955e+01 -4.771502e+01 232 233 146
-8.805970e+01 2.177933e+01 -9.976187e+01 237 237 220
-8.734537e+01 2.264776e+01 -9.931207e+01 134 134 136
-8.677148e+01 2.441130e+01 -9.831630e+01 201 193 156
-9.212109e+01 3.091213e+01 -1.002253e+02 241 170 135
-5.275648e+01 3.387050e+01 -1.010556e+02 250 216 173
-8.663483e+01 3.290255e+01 -9.647683e+01 237 173 143
-9.067260e+01 3.592375e+01 -9.821795e+01 140 104 87
-8.645317e+01 3.502978e+01 -9.486362e+01 234 176 142
-7.582061e+00 -5.535875e+00 5.641904e+00 21 23 22
-8.839705e+00 -3.501766e+00 5.722882e+00 161 171 172
-7.783883e+00 -3.113159e+00 6.234612e+00 31 30 36
-2.381765e+01 -3.288036e+00 -1.389765e+00 47 42 50
-3.682265e+00 -2.116773e+00 7.244208e+00 173 168 167
-3.678275e+00 -2.124245e+00 7.305955e+00 173 168 167
8.131639e+00 9.101227e+00 -4.383315e+01 239 244 241
-1.086446e+00 1.145059e+01 -5.211627e+01 255 252 207
4.738603e-01 1.171136e+01 -5.147035e+01 79 68 44
-3.145650e+00 1.214848e+01 -5.409344e+01 216 225 132
-2.720198e+00 1.225360e+01 -5.357137e+01 103 109 67
-3.311121e+00 1.276040e+01 -5.491293e+01 143 136 95
-2.997943e+00 1.294598e+01 -5.448423e+01 97 107 64
-3.918551e+00 1.370003e+01 -5.678592e+01 229 227 139
-9.022945e+01 2.137194e+01 -1.014308e+02 254 252 241
-9.065002e+01 2.195895e+01 -1.011663e+02 156 154 143
1.027090e+01 1.432134e+01 -5.089932e+01 183 161 102
1.028984e+01 1.622888e+01 -5.463401e+01 212 219 120
-9.396616e+01 2.619269e+01 -1.032056e+02 117 89 72
-2.087896e+01 2.735911e+01 -9.836187e+01 255 254 253
4.596797e+00 2.499656e+01 -8.570632e+01 247 247 234
-5.271770e+01 3.038489e+01 -1.025993e+02 227 191 157
-5.220481e+01 3.112291e+01 -1.044264e+02 244 226 201
-8.843858e+01 2.993398e+01 -9.835659e+01 210 146 116
-8.638350e+01 3.144861e+01 -9.669286e+01 235 170 137
-8.919278e+01 3.426591e+01 -9.752092e+01 225 160 129
-9.111753e+01 3.509013e+01 -9.862098e+01 238 165 133
-8.924777e+01 3.609591e+01 -9.694240e+01 213 156 124
-8.253866e+00 -4.373962e+00 5.806702e+00 144 153 157
-2.122269e+01 -2.829560e+00 -2.180899e-01 58 62 62
6.675768e+00 9.294306e+00 -4.474625e+01 243 243 240
5.932021e+00 9.486781e+00 -4.477177e+01 144 136 108
2.592040e+00 9.907623e+00 -4.701311e+01 130 126 87
5.863595e+00 9.865119e+00 -4.537081e+01 226 218 147
1.303477e-01 1.114600e+01 -5.105816e+01 61 50 33
7.811895e-01 1.138880e+01 -5.100798e+01 214 213 131
-8.390424e-01 1.187575e+01 -5.218343e+01 95 65 45
7.314866e+00 1.163388e+01 -4.816925e+01 179 189 103
-4.270887e+00 1.389795e+01 -5.684643e+01 186 183 123
2.990929e+00 1.436196e+01 -5.391164e+01 167 170 93
-9.163180e+01 2.391380e+01 -1.015232e+02 232 223 196
-8.879705e+01 2.504117e+01 -9.968326e+01 176 153 127
-8.850671e+01 2.554699e+01 -9.971948e+01 116 80 67
-8.367970e+01 2.496070e+01 -9.675562e+01 179 132 103
-8.271155e+01 2.545372e+01 -9.617853e+01 245 198 161
-9.090487e+01 2.791664e+01 -1.001674e+02 224 155 127
-8.623257e+01 2.965940e+01 -9.725968e+01 233 163 133
-9.131720e+01 3.167252e+01 -9.965233e+01 197 125 107
-4.805818e+01 3.394645e+01 -1.094691e+02 235 212 188
-8.547375e+01 3.109477e+01 -9.628099e+01 146 93 77
-2.161500e+01 3.179794e+01 -9.759055e+01 194 189 176
-4.972052e+01 3.451329e+01 -1.077621e+02 144 131 115
-9.366696e+01 3.537350e+01 -1.000165e+02 149 92 84
-8.955223e+01 3.522285e+01 -9.757306e+01 209 144 120
-9.380763e+01 3.661298e+01 -9.968478e+01 138 87 76
-6.729636e+01 3.286590e+01 -8.549435e+01 224 177 145
-6.512179e+01 3.270230e+01 -8.343077e+01 242 183 149
-9.920196e+00 -5.372195e+00 4.259131e+00 105 102 95
-7.804806e+00 -4.734084e+00 5.725197e+00 64 68 98
-9.019274e+00 -4.435828e+00 5.308291e+00 105 88 88
-2.200660e+01 -3.063463e+00 -4.192583e-01 109 111 106
-2.115618e+01 -2.581341e+00 3.076536e-01 36 44 47
-2.299611e+01 -2.418956e+00 -8.137958e-01 161 159 158
-1.156604e+01 -2.144750e+00 4.940994e+00 244 250 243
-2.313766e+01 -1.671618e+00 -6.631192e-01 205 215 220
5.143284e+00 2.330350e+00 -2.175453e+01 166 163 150
-1.632293e+01 -1.150655e-01 3.162954e+00 216 222 226
7.267185e+00 9.205511e+00 -4.414455e+01 240 237 230
6.897595e+00 9.433749e+00 -4.461880e+01 181 163 130
5.325104e+00 9.632503e+00 -4.559340e+01 187 179 130
4.062300e+00 9.748079e+00 -4.636460e+01 213 197 142
-8.346161e+00 2.065221e+00 1.843968e-01 42 44 39
3.298855e+00 1.185160e+01 -5.007438e+01 254 244 186
-3.630747e+00 1.238502e+01 -5.413827e+01 204 211 121
7.349542e+00 1.198317e+01 -4.858768e+01 229 229 135
-9.308155e+01 2.131513e+01 -1.033640e+02 175 173 169
-3.307435e+00 1.329726e+01 -5.577960e+01 244 237 163
4.554640e-01 1.293389e+01 -5.250931e+01 106 91 47
-9.116063e+01 2.199959e+01 -1.018545e+02 154 152 138
-1.352495e+00 1.392985e+01 -5.364009e+01 92 82 55
3.914979e+00 1.497445e+01 -5.461161e+01 230 224 167
-8.698574e+01 2.405500e+01 -9.863894e+01 203 196 170
-1.238387e+01 1.864804e+01 -6.703872e+01 245 238 169
-1.451823e+01 1.876213e+01 -6.780760e+01 155 136 57
-1.454970e+01 2.473231e+01 -8.914941e+01 212 208 135
-1.566995e+01 2.507123e+01 -9.055172e+01 163 159 95
3.819545e+00 2.481843e+01 -8.417825e+01 252 249 239
-8.863914e+01 2.855095e+01 -9.927963e+01 227 163 128
-5.165848e+01 3.109950e+01 -1.050006e+02 123 113 112
-8.544675e+01 2.945044e+01 -9.681202e+01 164 101 84
-8.443211e+01 2.948096e+01 -9.612601e+01 249 184 153
-8.553461e+01 2.997102e+01 -9.684614e+01 237 177 145
-7.371803e+01 2.833660e+01 -9.026859e+01 237 168 146
-2.034660e+01 2.356051e+01 -7.094468e+01 142 137 108
-8.292967e+01 3.032348e+01 -9.526338e+01 244 185 155
-8.376522e+01 3.084522e+01 -9.541037e+01 157 97 85
-5.229254e+01 3.309775e+01 -1.029450e+02 130 108 93
-5.229254e+01 3.309775e+01 -1.029450e+02 130 108 93
-9.283657e+01 3.381482e+01 -9.997454e+01 229 168 139
-9.113080e+01 3.348461e+01 -9.888904e+01 237 166 138
-9.113080e+01 3.348461e+01 -9.888904e+01 237 166 138
-9.342738e+01 3.406556e+01 -1.002256e+02 133 78 73
-9.287196e+01 3.668204e+01 -9.924900e+01 217 157 129
-5.369369e+01 3.672812e+01 -1.004602e+02 224 214 169
-9.113115e+01 3.728412e+01 -9.802360e+01 174 114 90
-6.912846e+00 -4.788028e+00 6.259539e+00 90 90 84
-8.643312e+00 -4.126742e+00 5.611439e+00 25 24 41
-2.450981e+01 -2.594102e+00 -1.599328e+00 255 255 251
-2.034534e+00 -1.655379e+00 5.462348e+00 42 46 53
-2.114423e+00 -1.340022e+00 5.658006e+00 48 46 45
-1.719954e+01 -1.267037e-01 2.831415e+00 136 146 167
9.938949e+00 9.012897e+00 -4.331547e+01 239 240 237
7.636143e+00 9.489967e+00 -4.450524e+01 232 227 154
-1.453978e+00 1.160823e+01 -5.214588e+01 65 48 37
6.242867e+00 1.118068e+01 -4.796062e+01 217 217 116
-6.986962e+00 1.274380e+01 -5.672815e+01 255 223 149
-9.403132e+01 2.071477e+01 -1.037229e+02 226 220 197
4.511206e+00 1.247959e+01 -5.100978e+01 244 245 153
3.833614e+00 1.252878e+01 -5.110645e+01 237 233 146
-8.855019e+00 1.363766e+01 -5.852267e+01 228 229 150
6.693020e+00 1.225925e+01 -4.886051e+01 226 230 150
-8.869529e+01 2.139014e+01 -1.005920e+02 245 246 231
-2.066731e+00 1.319066e+01 -5.316855e+01 166 171 118
-2.063121e+00 1.320319e+01 -5.326559e+01 166 171 118
-9.375896e+00 1.477109e+01 -6.044680e+01 151 135 84
-9.375896e+00 1.477109e+01 -6.044680e+01 151 135 84
-5.424305e-01 1.363400e+01 -5.226325e+01 222 233 177
3.116858e+00 1.408980e+01 -5.377159e+01 228 234 125
-1.341414e+01 1.619255e+01 -6.399628e+01 245 239 173
7.764056e+00 1.423362e+01 -5.162962e+01 231 229 138
4.846054e+00 1.491348e+01 -5.398685e+01 241 238 146
-1.356267e+01 1.677026e+01 -6.486699e+01 229 218 136
1.025799e+01 1.450958e+01 -5.117888e+01 166 154 92
5.282719e-01 1.560275e+01 -5.666046e+01 187 178 120
2.497724e+00 1.572570e+01 -5.659210e+01 225 227 133
-8.635319e+01 2.423006e+01 -9.842664e+01 174 169 138
-9.348683e+01 2.519034e+01 -1.023045e+02 171 163 132
8.882601e+00 1.577552e+01 -5.414901e+01 245 233 157
-1.538482e+01 1.824277e+01 -6.749852e+01 139 106 68
-1.536388e+01 1.820829e+01 -6.734458e+01 139 106 68
-9.090582e+01 2.528821e+01 -1.011414e+02 73 66 56
-1.025246e+01 1.780810e+01 -6.481040e+01 250 229 166
-1.331551e+01 1.816218e+01 -6.657748e+01 238 234 164
-1.012552e+01 1.820483e+01 -6.511715e+01 203 194 105
-6.180948e+01 2.261103e+01 -6.442881e+01 194 182 131
-8.413810e+01 3.108424e+01 -9.507902e+01 224 156 130
-5.286205e+01 3.334917e+01 -1.024194e+02 170 139 104
-5.286205e+01 3.334917e+01 -1.024194e+02 170 139 104
-9.329462e+01 3.323546e+01 -1.001761e+02 162 104 89
-9.219258e+01 3.363008e+01 -9.961287e+01 174 114 88
-9.219258e+01 3.363008e+01 -9.961287e+01 174 114 88
-6.176982e+01 2.397323e+01 -6.377480e+01 236 228 172
-5.265104e+01 3.492036e+01 -1.021354e+02 136 116 92
-5.638189e+01 3.409823e+01 -9.587742e+01 114 104 77
-9.195497e+01 3.596101e+01 -9.886700e+01 221 157 127
-6.191262e+01 2.531804e+01 -6.327942e+01 199 188 143
-2.212956e+01 2.794601e+01 -7.108643e+01 135 126 117
-4.731030e+01 4.007557e+01 -1.108499e+02 255 253 252
-5.302243e+01 3.765360e+01 -1.011586e+02 248 222 189
-9.028024e+01 3.793673e+01 -9.710137e+01 244 190 159
-7.576183e+00 -5.356172e+00 5.860520e+00 90 85 79
-8.507070e+00 -4.850059e+00 5.402408e+00 245 244 244
-8.333275e+00 -4.768195e+00 5.326760e+00 139 130 123
-8.386725e+00 -3.598566e+00 5.847471e+00 57 58 77
-1.037460e+01 -2.519695e+00 5.393701e+00 106 108 103
3.676273e+00 1.276550e+00 -1.849778e+01 254 253 235
-2.083518e+00 -1.276634e+00 5.691697e+00 206 214 190
-2.083518e+00 -1.276634e+00 5.691697e+00 206 214 190
-3.988393e+00 -1.307405e+00 7.333225e+00 63 70 97
-1.703411e+01 -1.462163e-01 2.798721e+00 241 248 238
3.543338e+00 8.698712e+00 -4.530858e+01 73 64 60
-1.211446e+01 3.810781e-01 4.711283e+00 254 254 248
9.311208e+00 8.920608e+00 -4.275916e+01 244 245 242
3.746718e+00 9.529926e+00 -4.599070e+01 245 249 243
-2.513052e+00 1.155649e+01 -5.267773e+01 255 226 149
-6.192016e+00 1.202235e+01 -5.477767e+01 255 255 202
-1.441265e+00 1.178880e+01 -5.223102e+01 215 210 172
-8.837403e-01 1.186058e+01 -5.230932e+01 82 53 41
-4.281262e-01 1.198900e+01 -5.192229e+01 103 80 67
-9.206887e-01 1.208525e+01 -5.201959e+01 77 53 31
5.795262e+00 1.185149e+01 -4.905418e+01 199 181 111
5.795262e+00 1.185149e+01 -4.905418e+01 199 181 111
-9.290781e+00 1.318642e+01 -5.827098e+01 255 248 181
9.378761e+00 1.188673e+01 -4.758324e+01 175 157 81
-1.661711e+00 1.265052e+01 -5.270148e+01 47 45 11
9.143726e-01 1.301636e+01 -5.270162e+01 245 233 157
6.378052e+00 1.284947e+01 -5.032829e+01 250 245 142
6.718471e+00 1.294355e+01 -5.022988e+01 168 153 49
9.368941e+00 1.311071e+01 -4.943186e+01 240 228 129
-9.234114e+00 1.489136e+01 -6.048703e+01 254 223 160
-6.601814e+00 1.481320e+01 -5.915749e+01 166 157 91
-1.087283e+00 1.410309e+01 -5.390060e+01 254 252 179
1.401985e+00 1.446147e+01 -5.508374e+01 182 187 102
-1.366439e+01 1.778924e+01 -6.618246e+01 237 226 161
-1.589776e+01 1.873390e+01 -6.811938e+01 236 226 144
-1.465276e+01 1.962245e+01 -7.003357e+01 252 248 170
-5.478075e+01 2.977862e+01 -9.983995e+01 253 253 249
-8.927366e+01 3.016312e+01 -9.880352e+01 184 124 95
-8.913015e+01 3.009985e+01 -9.857485e+01 184 124 95
-5.815569e+01 2.883074e+01 -9.349575e+01 255 243 202
-5.815569e+01 2.883074e+01 -9.349575e+01 255 243 202
-6.201958e+01 2.192640e+01 -6.463435e+01 207 196 155
-6.223486e+01 2.214563e+01 -6.463096e+01 250 238 204
-5.230687e+01 3.236009e+01 -1.036359e+02 255 233 205
-6.274765e+01 2.283860e+01 -6.462271e+01 254 242 203
-5.313492e+01 3.300692e+01 -1.016286e+02 247 228 175
-5.322007e+01 3.320028e+01 -1.013828e+02 160 142 94
-5.313481e+01 3.359144e+01 -1.014446e+02 243 227 158
-5.038341e+01 3.494640e+01 -1.059205e+02 226 219 201
-5.468741e+01 3.357935e+01 -9.965662e+01 68 62 47
-6.178721e+01 2.416203e+01 -6.358440e+01 242 234 177
-5.875271e+01 3.196170e+01 -9.182491e+01 255 240 209
-6.186858e+01 2.499272e+01 -6.314477e+01 243 232 185
-5.333119e+01 3.608641e+01 -9.976553e+01 155 146 113
-5.022891e+01 3.830795e+01 -1.051701e+02 225 218 189
-5.355353e+01 3.716692e+01 -1.001121e+02 160 146 112
-6.278069e+01 3.328841e+01 -8.466436e+01 216 190 167
-6.652716e+01 3.350457e+01 -8.426859e+01 137 81 70
-8.005587e+00 -3.658865e+00 5.541520e+00 191 189 186
-1.715287e+01 -2.699630e+00 1.732292e+00 152 154 155
4.185525e+01 7.780453e+00 -2.755509e+01 132 138 47
-8.696336e+00 -4.917165e+00 5.621861e+00 224 215 212
3.294962e+01 9.153553e+00 -3.308073e+01 187 178 93
4.203197e+01 1.755419e+01 -5.268015e+01 138 135 51
-7.122750e+00 -2.818087e+00 6.664809e+00 83 79 72
3.060681e+01 9.314290e+00 -3.476705e+01 152 166 76
3.463546e+01 1.102566e+01 -3.539646e+01 177 162 82
4.039038e+01 9.745837e+00 -2.958846e+01 14 14 11
-8.211234e+00 -4.363465e+00 5.711530e+00 180 175 171
4.153273e+01 7.574200e+00 -2.744821e+01 151 144 69
3.005637e+01 1.025615e+01 -3.624612e+01 125 117 63
4.105853e+01 9.322896e+00 -2.888581e+01 13 14 11
3.552226e+01 1.129457e+01 -3.529525e+01 68 69 27
3.817002e+01 1.122687e+01 -3.453307e+01 76 74 27
3.129106e+01 1.254800e+01 -3.866627e+01 201 171 107
4.317295e+01 1.899861e+01 -5.460404e+01 43 41 28
3.408013e+01 8.947515e+00 -3.249270e+01 106 103 46
3.145900e+01 1.180222e+01 -3.746452e+01 72 75 27
4.176157e+01 9.404120e+00 -2.892287e+01 24 20 16
3.116747e+01 1.354153e+01 -4.087460e+01 101 94 22
3.970580e+01 1.165539e+01 -3.414809e+01 212 196 134
-1.751541e+01 8.810502e-01 2.412042e+00 195 194 190
-1.362320e+01 2.016457e+00 3.976662e+00 151 169 131
-2.543887e+01 3.509608e+01 -9.919844e+01 166 163 157
-4.775340e+01 3.676910e+01 -1.103997e+02 241 221 198
-5.077518e+01 3.649789e+01 -1.052020e+02 132 135 140
-5.007064e-01 1.344022e+01 -5.226231e+01 97 90 39
-5.027390e+01 2.942433e+01 -1.077111e+02 190 182 162
-4.967473e+01 2.970463e+01 -1.083108e+02 212 202 167
-4.924696e+01 2.988367e+01 -1.090922e+02 239 211 193
-5.719598e+01 2.746560e+01 -9.567305e+01 225 213 169
-5.719598e+01 2.746560e+01 -9.567305e+01 225 213 169
-4.964224e+01 3.326511e+01 -1.077876e+02 233 219 190
-2.011734e+01 2.349598e+01 -7.099010e+01 245 235 224
-4.757276e+01 4.108506e+01 -1.099390e+02 251 246 246
-4.768574e+01 4.109840e+01 -1.095594e+02 132 120 114
-9.332312e+01 3.562645e+01 -1.012579e+02 207 141 112
-9.490541e+01 3.705849e+01 -1.003102e+02 127 89 74
-9.585388e+01 2.385589e+01 -1.043482e+02 143 138 131
-1.803999e+01 3.267684e+00 1.757788e+00 170 194 180
-9.612644e+01 3.454990e+01 -1.018286e+02 205 149 123
-9.645192e+01 2.182950e+01 -1.049405e+02 221 218 203
-9.451441e+01 3.123796e+01 -1.016848e+02 238 170 137
-1.068510e+02 3.344568e+01 -1.085342e+02 187 130 109
-9.592352e+01 3.271557e+01 -1.023358e+02 229 175 138
-9.457966e+01 3.006417e+01 -1.022189e+02 232 169 129
-1.007289e+02 3.898042e+01 -1.038674e+02 241 172 139
-9.597933e+01 2.372065e+01 -1.042302e+02 128 126 118
-9.597933e+01 2.372065e+01 -1.042302e+02 128 126 118
-9.553467e+01 2.854822e+01 -1.029658e+02 197 132 106
-8.830649e+01 2.919502e+01 -9.851067e+01 213 153 117
-9.950922e+01 3.525460e+01 -1.035222e+02 164 112 89
-9.639855e+01 3.534285e+01 -1.017089e+02 169 117 99
-9.723522e+01 3.551484e+01 -1.020597e+02 240 178 148
-9.710141e+01 3.545568e+01 -1.018643e+02 240 178 148
-4.998023e+01 3.770993e+01 -1.062485e+02 244 232 210
-9.508557e+01 3.893242e+01 -1.001266e+02 244 183 152
-9.668001e+01 3.942908e+01 -1.008094e+02 246 187 150
-4.549273e+01 4.125781e+01 -1.093226e+02 191 183 171
-6.622470e+01 3.395366e+01 -8.402676e+01 231 174 142
3.991451e+00 1.003041e+01 -4.688298e+01 254 249 187
-9.520566e+01 2.072818e+01 -1.043269e+02 213 207 179
-9.652458e+01 2.411487e+01 -1.044095e+02 195 190 172
-9.480101e+01 2.428746e+01 -1.034767e+02 134 132 117
-9.589983e+01 2.632406e+01 -1.038298e+02 222 171 137
-9.505460e+01 2.899654e+01 -1.025754e+02 194 129 97
-9.517365e+01 3.030381e+01 -1.022554e+02 197 134 109
-9.762152e+01 3.494458e+01 -1.025272e+02 188 128 105
-1.040141e+02 3.853766e+01 -1.052008e+02 181 124 104
-5.341628e+01 3.752425e+01 -1.000499e+02 238 227 191
-6.135460e+01 2.735710e+01 -6.290277e+01 239 235 189
-1.490531e+01 -3.120362e+00 2.993066e+00 65 71 75
-8.487847e+00 1.109926e+00 2.984989e+00 91 95 115
-9.638024e+01 2.121939e+01 -1.054645e+02 162 163 149
-1.267142e+01 1.648718e+01 -6.423551e+01 252 236 175
-1.267142e+01 1.648718e+01 -6.423551e+01 252 236 175
-2.117502e-01 1.658707e+01 -5.868662e+01 172 174 89
-7.971658e+01 2.847547e+01 -9.371039e+01 150 90 72
-6.185941e+01 2.201297e+01 -6.473487e+01 245 235 195
-7.245091e+01 3.295694e+01 -8.806948e+01 146 96 72
-6.864200e+01 3.272175e+01 -8.605374e+01 232 187 160
-6.435308e+01 3.297347e+01 -8.327103e+01 255 249 246
-6.513661e+01 3.349530e+01 -8.371545e+01 242 181 151
-1.016302e+01 1.087139e+00 3.520934e+00 52 60 61
-4.225690e-01 1.200784e+01 -5.200768e+01 103 80 67
-5.395488e-01 1.249930e+01 -5.195626e+01 218 210 175
-5.724035e+01 2.759982e+01 -9.528331e+01 187 166 130
-5.667574e+01 2.906471e+01 -9.536758e+01 118 98 67
-5.817813e+01 3.203664e+01 -9.237002e+01 255 240 208
-6.131650e+01 2.525348e+01 -6.398387e+01 242 234 174
-6.277720e+01 3.328773e+01 -8.466427e+01 216 190 167
-6.482322e+01 3.322888e+01 -8.357792e+01 188 129 120
-4.945241e+01 4.021560e+01 -1.067644e+02 254 227 203
-2.688392e+00 -1.584190e+00 6.215457e+00 255 255 255
-2.252792e+00 1.278180e+01 -5.412392e+01 88 90 64
-2.146271e+00 1.261702e+01 -5.310906e+01 88 90 64
4.092747e+00 9.248385e+00 -4.603598e+01 221 226 229
1.708328e-01 1.001728e+01 -4.962238e+01 226 230 231
1.708328e-01 1.001728e+01 -4.962238e+01 226 230 231
-2.936183e+00 -2.837736e+00 6.368483e+00 190 119 37
-1.162023e+00 -2.463520e+00 4.747461e+00 147 158 160
-9.281391e+01 3.541315e+01 -1.005039e+02 228 157 132
-8.923865e-01 -1.972766e+00 4.685083e+00 62 69 77
-1.835607e+00 -1.562688e+00 5.393630e+00 204 210 209
-4.862698e+00 -1.590049e+00 7.590964e+00 200 144 128
-4.713020e+01 3.744476e+01 -1.100945e+02 255 255 251
-8.477813e+00 -4.769540e+00 5.430920e+00 161 162 164
-7.463664e+00 -3.604178e+00 6.246578e+00 138 146 160
6.933843e+00 1.259943e+01 -4.920793e+01 188 176 100
6.155113e+00 1.274685e+01 -5.017978e+01 234 231 135
-1.544963e+01 1.665776e+01 -6.534964e+01 225 215 151
-9.431476e+01 3.416372e+01 -1.007878e+02 137 83 71
-9.431476e+01 3.416372e+01 -1.007878e+02 137 83 71
-2.110181e+00 -1.881201e+00 5.386224e+00 160 179 197
-2.317830e+01 -2.062971e+00 -8.090818e-01 255 255 255
4.123647e+00 1.638166e+00 -1.969857e+01 253 254 252
7.394938e+00 3.465249e+00 -2.511902e+01 162 157 154
7.756091e+00 9.944471e+00 -4.516914e+01 161 159 97
-1.290059e+01 1.208645e+00 4.218222e+00 200 218 233
7.954545e+00 2.408760e+01 -8.137299e+01 246 247 233
3.535952e+00 2.464314e+01 -8.411248e+01 246 246 234
-9.406047e+01 3.219483e+01 -1.011514e+02 126 75 70
-9.306816e+01 3.613693e+01 -9.973695e+01 249 186 154
-7.511458e+00 -4.575553e+00 5.924237e+00 111 112 113
-7.070924e-01 -1.984267e+00 4.565741e+00 222 222 213
-5.004424e+00 -2.471409e+00 7.443459e+00 245 248 248
2.994208e+00 1.087769e+00 -1.784587e+01 253 254 250
-3.869474e+00 -1.341949e+00 7.345345e+00 101 100 113
-4.120220e-01 -3.712147e-01 2.126749e+00 220 226 218
2.350846e+00 9.692090e+00 -4.698840e+01 236 243 243
-2.276506e+01 1.782011e+00 -1.221205e-01 76 88 103
5.004939e+00 1.303516e+01 -5.127944e+01 219 214 111
-1.746187e+01 1.685510e+01 -6.663935e+01 175 167 84
-1.780825e+01 3.600513e+00 1.632138e+00 70 91 116
-3.244603e+00 -3.596712e+00 6.941077e+00 17 25 45
-7.073905e-02 -1.599327e+00 3.169097e+00 253 252 251
-1.791208e+00 9.242293e+00 -4.851413e+01 182 173 166
4.757128e+00 9.501086e+00 -4.598761e+01 235 237 239
-6.659517e-01 1.130597e+01 -5.195530e+01 110 88 74
1.447773e+00 1.214880e+01 -5.137211e+01 245 222 166
-4.232181e+00 1.307565e+01 -5.587297e+01 171 164 107
-1.383788e+01 1.604354e+01 -6.399857e+01 234 224 155
3.535497e+00 1.650202e+01 -5.769679e+01 224 217 131
-8.610023e+00 1.828375e+01 -6.565363e+01 185 170 100
-7.334999e+01 2.760674e+01 -8.940322e+01 250 179 150
-4.805695e+01 3.309974e+01 -1.095506e+02 255 244 225
-4.811058e+01 3.314453e+01 -1.097040e+02 255 244 225
-9.547319e+01 3.411909e+01 -1.013604e+02 234 178 151
-9.609720e+01 3.609056e+01 -1.014078e+02 236 174 147
-9.571376e+01 3.724308e+01 -1.010883e+02 121 81 68
-1.154590e+01 -3.449797e+00 4.404419e+00 59 59 64
-1.400779e+01 -3.262714e+00 2.347643e+00 57 61 63
-3.872541e-01 -2.296536e+00 3.517788e+00 225 227 222
-2.067133e+00 -1.829299e+00 5.400438e+00 147 165 179
3.603343e+00 1.470210e+00 -1.907775e+01 250 250 241
-1.767926e+01 -1.583134e+00 2.317996e+00 211 221 225
-2.507770e+00 8.899233e+00 -4.746989e+01 187 174 166
-2.124391e+00 9.712259e+00 -4.900399e+01 152 148 135
-4.712528e+00 1.033831e+01 -5.089866e+01 160 152 141
5.262070e-01 1.091684e+01 -4.996549e+01 222 224 135
-1.798213e+01 1.385752e+01 -6.306176e+01 179 175 108
-1.077613e+00 1.346197e+01 -5.256825e+01 201 203 160
-1.784301e+01 1.735049e+01 -6.736726e+01 234 214 160
3.644281e+00 1.675547e+01 -5.775832e+01 165 156 76
-1.731960e+01 1.861486e+01 -6.877920e+01 155 139 94
-1.690581e+01 1.860267e+01 -6.829613e+01 254 237 194
-1.266760e+01 1.851200e+01 -6.688021e+01 195 196 104
-1.395163e+01 1.869984e+01 -6.745709e+01 165 164 85
-2.284234e+01 2.013166e+01 -7.359725e+01 247 247 158
-2.189566e+01 2.012398e+01 -7.241014e+01 115 124 78
-2.292140e+01 2.718180e+01 -9.737829e+01 251 248 235
-8.900220e+01 2.875085e+01 -9.922782e+01 198 131 107
-9.067544e+01 2.922025e+01 -9.944112e+01 251 178 149
-2.035486e+01 2.356804e+01 -7.097413e+01 139 136 109
-1.027372e+02 3.323701e+01 -1.062829e+02 219 157 134
-4.796436e+01 3.560246e+01 -1.104452e+02 136 106 95
-9.482334e+01 3.378513e+01 -1.012365e+02 139 85 66
-7.232737e+01 3.063025e+01 -8.878959e+01 142 80 63
-9.290789e+01 3.508616e+01 -9.966787e+01 244 180 154
-9.450242e+01 3.606057e+01 -1.003463e+02 216 153 132
-9.629831e+01 3.712945e+01 -1.011440e+02 235 178 146
-1.042642e+02 3.862121e+01 -1.055120e+02 195 137 115
-9.508072e+01 3.873832e+01 -1.000704e+02 255 198 169
-6.596155e-01 -2.287506e+00 4.285350e+00 223 218 209
-6.152611e-01 -1.883845e+00 4.288604e+00 104 104 110
-1.587248e+00 -1.138188e+00 4.318452e+00 142 145 133
-1.637730e+01 -1.914584e-01 3.177491e+00 101 115 141
-3.157269e-01 9.341230e+00 -4.787208e+01 216 220 200
-4.677002e+00 9.735674e+00 -5.038090e+01 202 189 164
-7.652013e-01 9.648954e+00 -4.804554e+01 175 169 147
-7.648440e-01 9.644176e+00 -4.805968e+01 175 169 147
-1.110861e+00 9.842619e+00 -4.826683e+01 144 140 124
-1.110861e+00 9.842619e+00 -4.826683e+01 144 140 124
-3.699912e+00 1.018896e+01 -5.003106e+01 165 157 136
-4.325573e+00 1.019677e+01 -5.011220e+01 142 140 127
-8.739040e+00 1.047813e+01 -5.270790e+01 236 224 195
-9.933025e+00 1.084644e+01 -5.360453e+01 175 168 147
3.486477e+00 1.049839e+01 -4.788149e+01 239 223 164
5.284308e+00 1.120687e+01 -4.826591e+01 250 235 165
5.736790e-01 1.161311e+01 -5.104805e+01 74 52 28
6.793846e+00 1.190469e+01 -4.860104e+01 253 237 181
7.906008e+00 1.327770e+01 -5.030825e+01 227 210 143
-3.085675e-01 1.378122e+01 -5.267831e+01 82 82 57
