ply
format ascii 1.0
element vertex 919
property float x
property float y
property float z
property uchar diffuse_red
property uchar diffuse_green
property uchar diffuse_blue
end_header
-2.250487e+01 2.857979e+01 -7.167242e+01 82 82 67
-5.187518e+01 1.784802e+01 -7.741599e+01 170 176 119
-5.019928e+01 1.787874e+01 -7.723399e+01 112 115 66
1.752016e+01 9.738366e+00 -4.163582e+01 145 133 86
1.068916e+01 1.058944e+01 -4.523822e+01 116 102 59
1.061916e+01 1.054846e+01 -4.503073e+01 116 102 59
1.158622e+01 1.063560e+01 -4.490670e+01 114 115 40
1.463993e+01 1.042695e+01 -4.370595e+01 160 158 100
2.142360e+01 9.771471e+00 -3.999932e+01 201 194 128
1.331465e+01 1.087008e+01 -4.443516e+01 235 228 159
1.529442e+01 1.112492e+01 -4.451175e+01 235 223 150
1.442484e+01 1.136526e+01 -4.526708e+01 184 170 102
1.758287e+01 1.100494e+01 -4.330072e+01 176 174 94
9.152722e+00 1.185286e+01 -4.738943e+01 165 148 71
1.935067e+01 1.086058e+01 -4.250391e+01 247 229 172
7.494751e+00 1.279907e+01 -4.928942e+01 222 217 156
-5.291358e+01 2.168699e+01 -8.550399e+01 187 200 132
1.147470e+01 1.256684e+01 -4.767688e+01 139 133 49
2.787007e+01 1.054910e+01 -3.773167e+01 142 127 72
-4.505343e+01 2.056331e+01 -7.973235e+01 232 212 157
8.771876e+00 1.325085e+01 -4.966331e+01 189 188 100
1.465052e+01 1.265181e+01 -4.639044e+01 252 232 172
-4.880195e+01 2.207509e+01 -8.463587e+01 244 222 159
-5.614278e+01 2.297292e+01 -8.765059e+01 209 219 134
-5.614278e+01 2.297292e+01 -8.765059e+01 209 219 134
1.523733e+01 1.281174e+01 -4.669554e+01 136 131 77
7.615276e+00 1.395542e+01 -5.124789e+01 97 96 47
-4.826992e+01 2.236427e+01 -8.448982e+01 219 216 149
1.837066e+01 1.297279e+01 -4.550391e+01 226 222 158
9.349056e+00 1.436891e+01 -5.100567e+01 113 89 27
2.040863e+01 1.384708e+01 -4.650549e+01 224 207 152
1.133029e+01 1.520716e+01 -5.207615e+01 214 209 140
1.941506e+01 1.415053e+01 -4.721646e+01 237 225 150
2.129947e+01 1.436122e+01 -4.650087e+01 133 149 46
2.129947e+01 1.436122e+01 -4.650087e+01 133 149 46
1.571962e+01 1.510647e+01 -4.969816e+01 178 172 80
1.727371e+01 1.518131e+01 -4.954213e+01 241 232 135
1.465463e+01 1.549544e+01 -5.070833e+01 248 250 146
-1.913874e+01 5.152590e+00 -5.144751e+00 76 102 126
-5.822427e+01 2.877577e+01 -9.694701e+01 222 210 163
-5.095645e+01 3.164775e+01 -1.080234e+02 120 118 114
-5.095645e+01 3.164775e+01 -1.080234e+02 120 118 114
-5.800092e+01 2.892195e+01 -9.611113e+01 219 196 154
-5.826642e+01 2.913859e+01 -9.567545e+01 227 207 154
-4.770265e+01 3.478293e+01 -1.129747e+02 251 244 236
-5.378926e+01 3.351443e+01 -1.034724e+02 235 215 155
-2.168001e+01 2.537731e+01 -7.160291e+01 208 205 189
-5.023606e+01 3.624008e+01 -1.078860e+02 144 131 112
-5.124697e+01 3.598427e+01 -1.068294e+02 224 235 227
-5.025594e+01 3.674248e+01 -1.076769e+02 140 127 108
-5.253052e+01 3.598249e+01 -1.042059e+02 229 215 180
-5.058949e+01 3.707007e+01 -1.070141e+02 238 228 203
-5.051549e+01 3.812056e+01 -1.075576e+02 238 220 196
-5.230688e+01 3.758680e+01 -1.047559e+02 156 150 145
-5.049819e+01 3.870130e+01 -1.072265e+02 239 220 200
-2.217938e+01 2.839029e+01 -7.116809e+01 94 90 81
4.194152e+01 2.258939e+01 -5.951898e+01 229 230 216
4.088487e+01 2.391112e+01 -6.090108e+01 144 151 151
4.315776e+01 1.921982e+01 -5.563017e+01 73 78 53
4.090272e+01 2.555797e+01 -6.025962e+01 147 152 150
4.203717e+01 2.708802e+01 -5.949536e+01 229 227 212
-9.397719e+00 -3.363645e+00 5.270177e+00 11 13 10
-2.760273e+01 3.055229e+01 -1.027661e+02 149 152 145
-2.129241e+01 2.840270e+01 -7.278476e+01 246 239 217
-8.334707e+00 -3.830757e+00 5.677554e+00 105 107 99
-2.618204e+01 1.772930e+01 -7.179933e+01 226 214 159
-2.648922e+01 2.016817e+01 -7.527072e+01 183 175 127
5.166704e+01 2.276612e+01 -5.417620e+01 167 168 162
3.293574e+00 3.177854e+01 -8.242230e+01 242 238 225
3.293574e+00 3.177854e+01 -8.242230e+01 242 238 225
3.522584e+01 7.987646e+00 -3.103973e+01 102 94 69
-2.753341e+01 2.007376e+01 -7.339197e+01 98 112 54
1.121127e+01 1.767538e+01 -5.403029e+01 251 249 236
1.193472e+01 1.806978e+01 -5.326432e+01 255 250 229
-2.815169e+01 3.210173e+01 -1.018805e+02 156 157 152
4.346025e+01 1.829646e+01 -5.410048e+01 56 60 40
3.136119e+01 2.454113e+01 -6.480784e+01 172 170 171
-2.238496e+01 2.844783e+01 -7.154994e+01 109 107 108
-3.410374e+01 4.104526e+01 -1.038955e+02 181 178 169
-2.688186e+01 1.809799e+01 -7.290165e+01 129 114 75
-2.788120e+01 1.785249e+01 -7.110548e+01 186 200 129
-2.318751e+01 1.914948e+01 -7.251350e+01 153 147 62
-2.104387e+01 2.037889e+01 -7.237163e+01 245 231 205
-1.969843e+01 2.040670e+01 -7.231089e+01 247 234 213
3.812295e+01 1.238938e+01 -3.595402e+01 205 207 119
4.235872e+01 1.770442e+01 -5.316647e+01 172 182 92
5.132887e+01 1.814630e+01 -5.357481e+01 134 142 83
4.295036e+01 1.947218e+01 -5.871757e+01 86 98 53
4.384843e+01 1.829320e+01 -5.376540e+01 92 94 54
4.292136e+01 1.850084e+01 -5.452254e+01 50 50 36
4.176703e+01 1.724409e+01 -4.779894e+01 233 230 213
4.327650e+01 1.946904e+01 -5.376201e+01 127 138 115
5.118558e+01 2.208665e+01 -5.477942e+01 173 172 171
-2.221759e+01 2.803153e+01 -7.219583e+01 114 102 94
-1.750475e+01 -6.687377e-02 2.588961e+00 148 159 183
-2.812271e+01 1.719709e+01 -7.102390e+01 211 223 136
-2.649229e+01 1.819909e+01 -7.246473e+01 213 214 139
-2.633975e+01 1.923378e+01 -7.390802e+01 224 207 154
3.183152e+01 8.913153e+00 -3.400746e+01 105 101 55
2.935904e+01 9.454944e+00 -3.521659e+01 204 204 114
3.575597e+01 9.487224e+00 -3.372655e+01 178 188 92
-2.045939e+01 2.076053e+01 -7.220768e+01 252 251 232
-2.045750e+01 2.075134e+01 -7.223460e+01 252 251 232
3.782389e+01 1.089833e+01 -3.484793e+01 191 187 109
-2.320680e+01 2.750722e+01 -9.899700e+01 246 244 231
-2.548298e+01 3.022224e+01 -1.015309e+02 175 177 163
-2.134188e+01 2.300206e+01 -7.202644e+01 203 186 167
3.141733e+01 2.145290e+01 -6.717970e+01 250 248 238
-3.595496e+01 3.937928e+01 -1.058464e+02 181 178 169
-2.246585e+01 3.036288e+01 -7.069975e+01 222 209 166
-3.011834e+01 1.629468e+01 -7.094289e+01 45 41 37
-2.774854e+01 1.659535e+01 -7.114907e+01 251 211 160
-2.570156e+01 1.747829e+01 -7.204730e+01 148 146 81
-3.033321e+01 1.787487e+01 -7.166405e+01 115 118 68
-3.005653e+01 1.826057e+01 -7.199125e+01 201 211 120
-2.579847e+01 1.872196e+01 -7.293713e+01 176 179 95
-2.760411e+01 1.969151e+01 -7.377577e+01 202 229 110
3.499543e+01 9.457371e+00 -3.347856e+01 151 126 69
3.499543e+01 9.457371e+00 -3.347856e+01 151 126 69
-2.295661e+01 2.030773e+01 -7.443084e+01 230 227 153
-2.250272e+01 2.031875e+01 -7.430222e+01 204 207 123
2.563153e+01 1.230038e+01 -4.080369e+01 159 150 94
-2.005391e+01 2.310149e+01 -7.239394e+01 248 246 225
4.260881e+01 1.892582e+01 -5.515877e+01 53 53 39
4.297200e+01 1.965596e+01 -5.758015e+01 237 235 215
-2.174372e+01 2.922299e+01 -7.157911e+01 255 254 253
-2.188524e+01 3.037566e+01 -7.141045e+01 255 253 231
-1.736861e+01 -1.878851e-01 2.609574e+00 233 248 250
-2.932663e+01 1.718494e+01 -6.987587e+01 96 116 49
-2.748083e+01 1.827845e+01 -7.253393e+01 79 99 22
-2.803182e+01 1.870761e+01 -7.179727e+01 205 225 146
-2.949675e+01 1.901111e+01 -7.206590e+01 190 213 126
-2.791955e+01 1.934979e+01 -7.254558e+01 231 253 184
3.775236e+01 9.538041e+00 -3.212915e+01 125 120 52
-2.144535e+01 2.021882e+01 -7.253846e+01 91 89 64
-2.142918e+01 2.027530e+01 -7.277042e+01 91 89 64
-2.027118e+01 2.034623e+01 -7.229714e+01 232 227 192
-2.134464e+01 2.087718e+01 -7.246874e+01 91 89 86
3.715216e+01 1.049719e+01 -3.366837e+01 210 209 108
3.715216e+01 1.049719e+01 -3.366837e+01 210 209 108
-2.290339e+01 2.725171e+01 -9.894738e+01 201 204 169
-2.290339e+01 2.725171e+01 -9.894738e+01 201 204 169
3.662837e+01 1.062521e+01 -3.406985e+01 109 96 43
-2.132962e+01 2.134841e+01 -7.244357e+01 87 80 70
-2.061830e+01 2.216053e+01 -7.185870e+01 255 254 246
-2.067897e+01 2.472790e+01 -7.144315e+01 255 254 244
-2.122279e+01 2.700081e+01 -7.098218e+01 255 254 245
1.457266e+01 3.142579e+01 -7.681993e+01 142 134 135
-2.217079e+01 3.040618e+01 -7.075964e+01 120 109 83
-3.043616e+01 1.690839e+01 -7.017876e+01 55 73 15
-2.815478e+01 1.745991e+01 -7.074222e+01 84 89 30
-2.815478e+01 1.745991e+01 -7.074222e+01 84 89 30
-2.567431e+01 1.849036e+01 -7.299487e+01 236 224 174
-2.890809e+01 1.907215e+01 -7.249469e+01 83 96 46
-2.188611e+01 1.894949e+01 -7.133178e+01 229 234 129
3.630095e+01 8.822631e+00 -3.154799e+01 145 133 73
-2.367767e+01 1.973427e+01 -7.317045e+01 226 226 139
2.606140e+01 1.106868e+01 -3.937887e+01 190 192 114
-2.183250e+01 2.015715e+01 -7.284658e+01 225 218 184
2.959730e+01 1.068099e+01 -3.702061e+01 135 126 44
3.299339e+01 1.059715e+01 -3.574709e+01 131 144 67
3.343577e+01 1.057598e+01 -3.537032e+01 105 99 40
2.688537e+01 1.202235e+01 -4.028154e+01 109 118 46
2.581179e+01 1.212327e+01 -4.060914e+01 123 120 58
-2.133431e+01 2.166078e+01 -7.216239e+01 186 181 160
3.643189e+01 1.193774e+01 -3.636736e+01 146 131 74
2.885860e+01 1.298905e+01 -4.041985e+01 136 128 51
3.781517e+01 1.161749e+01 -3.487110e+01 186 178 109
3.686582e+01 1.199672e+01 -3.558445e+01 161 172 85
4.054382e+01 1.659333e+01 -4.650758e+01 93 103 70
4.276662e+01 1.959085e+01 -5.703151e+01 240 238 221
4.328100e+01 1.894172e+01 -5.384299e+01 179 190 131
4.368488e+01 1.893611e+01 -5.369561e+01 212 218 180
4.366705e+01 1.908192e+01 -5.396314e+01 77 82 57
4.366705e+01 1.908192e+01 -5.396314e+01 77 82 57
-2.216279e+01 2.982444e+01 -7.108397e+01 240 226 198
1.417829e+01 3.132854e+01 -7.665338e+01 132 125 133
-4.143784e+00 -3.645893e+00 6.453988e+00 170 184 185
-3.462506e+01 3.312236e+01 -1.061340e+02 178 178 165
1.464777e+01 8.057208e+00 -3.966181e+01 207 212 215
-5.112817e+01 3.851808e+01 -1.069910e+02 149 147 138
-8.571101e+00 -4.144818e+00 5.527692e+00 116 117 112
-9.346407e+00 -3.691773e+00 5.258161e+00 155 166 173
-2.346856e+01 -1.999592e+00 -1.064327e+00 255 255 255
-2.370980e+01 -1.580928e+00 -1.138285e+00 79 80 82
6.048931e+00 1.287713e+01 -5.092415e+01 235 234 138
1.484267e+01 1.529927e+01 -5.007393e+01 230 236 115
-4.945816e+01 3.488979e+01 -1.094233e+02 232 205 173
-4.945816e+01 3.488979e+01 -1.094233e+02 232 205 173
-2.391445e+01 -3.217157e+00 -1.639711e+00 208 208 206
1.437460e+01 8.340168e+00 -2.003592e+02 17 16 16
-2.310162e+01 2.061608e+00 -2.952149e-01 231 238 244
5.052690e+00 1.256861e+01 -5.044253e+01 177 177 113
5.055159e+00 1.256563e+01 -5.045517e+01 177 177 113
1.509220e+01 1.222580e+01 -4.629509e+01 249 239 162
1.476467e+01 1.392907e+01 -4.835757e+01 175 192 86
1.469961e+01 1.385790e+01 -4.809711e+01 175 192 86
1.032556e+01 1.486266e+01 -5.136832e+01 231 233 129
1.251397e+01 1.577840e+01 -5.280697e+01 161 158 101
-3.204361e+00 2.550916e+01 -8.884809e+01 250 248 235
3.476842e+00 2.500782e+01 -8.568066e+01 250 250 236
5.699024e+00 2.431745e+01 -8.256829e+01 255 254 251
-1.991838e+01 3.256209e+01 -9.689633e+01 247 245 229
-5.296652e+01 3.600034e+01 -1.042406e+02 227 210 165
-4.784672e+01 3.993668e+01 -1.121315e+02 255 255 255
-2.347989e+01 -3.540422e+00 -1.444709e+00 204 210 210
-2.523258e+01 -2.959598e+00 -1.957664e+00 134 134 129
-1.172316e+01 -3.305196e+00 4.320040e+00 147 162 164
-2.302949e+01 -2.156208e+00 -8.985435e-01 200 209 212
1.232868e+01 9.907944e+00 -4.365365e+01 158 172 91
7.928217e+00 1.144633e+01 -4.756066e+01 123 131 77
7.928217e+00 1.144633e+01 -4.756066e+01 123 131 77
4.866183e+00 1.357895e+01 -5.214259e+01 157 149 86
1.765625e+01 1.316030e+01 -4.631292e+01 198 209 113
1.544447e+01 1.398187e+01 -4.831223e+01 216 215 119
1.134252e+01 1.618410e+01 -5.361640e+01 223 206 136
-4.934197e+01 3.335328e+01 -1.101087e+02 255 227 197
-2.022753e+01 2.410200e+01 -7.175824e+01 254 254 253
-1.972683e+01 3.204849e+01 -9.722779e+01 179 183 166
-4.839203e+01 3.681237e+01 -1.104428e+02 115 96 84
1.119983e+01 2.031145e+01 -5.301901e+01 127 121 125
1.119983e+01 2.031145e+01 -5.301901e+01 127 121 125
-4.767353e+01 3.825137e+01 -1.119910e+02 254 255 255
1.058884e+01 8.731956e+00 -4.215812e+01 222 226 220
1.153386e+01 8.767019e+00 -4.204890e+01 237 230 228
1.494232e+01 8.822120e+00 -4.106217e+01 114 111 76
1.150240e+01 9.084507e+00 -4.245726e+01 176 179 115
1.121156e+01 9.383808e+00 -4.305952e+01 222 198 139
1.267107e+01 1.055134e+01 -4.449099e+01 172 175 99
1.297259e+01 1.064096e+01 -4.448674e+01 225 218 141
1.300811e+00 1.224648e+01 -5.185113e+01 254 233 183
5.886111e+00 1.174221e+01 -4.897709e+01 225 215 128
-1.030639e+00 1.277284e+01 -5.252053e+01 195 189 152
-6.944536e+01 2.336664e+01 -8.968044e+01 138 126 100
-6.749341e+01 2.320046e+01 -8.877336e+01 163 150 117
1.312633e+01 1.451044e+01 -4.977609e+01 166 189 101
1.650189e+01 1.436343e+01 -4.829938e+01 210 199 122
1.554037e+01 1.453704e+01 -4.891511e+01 104 98 47
9.651585e+00 1.598047e+01 -5.388580e+01 176 189 104
-5.762005e+01 3.044219e+01 -9.607015e+01 217 199 164
-5.719178e+01 3.142832e+01 -9.667895e+01 212 179 139
-5.274062e+01 3.505816e+01 -1.039301e+02 255 236 206
-5.695108e+01 3.367847e+01 -9.605559e+01 237 226 170
-5.320977e+01 3.547688e+01 -1.028527e+02 126 113 91
-5.050226e+01 3.653705e+01 -1.069324e+02 237 229 196
1.203426e+01 8.709697e+00 -4.167830e+01 236 239 239
8.758978e+00 9.286447e+00 -4.399430e+01 151 151 123
1.075681e+01 9.063110e+00 -4.273492e+01 100 98 78
1.451745e+01 9.037324e+00 -4.151263e+01 223 218 153
1.673078e+01 9.504271e+00 -4.151151e+01 222 218 144
5.507239e+00 1.123086e+01 -4.873708e+01 229 224 131
5.507239e+00 1.123086e+01 -4.873708e+01 229 224 131
1.295005e+01 1.067163e+01 -4.445684e+01 221 212 134
7.818098e+00 1.177831e+01 -4.823016e+01 206 217 131
6.800044e+00 1.250353e+01 -4.948284e+01 177 170 109
-6.335557e+01 2.307881e+01 -8.764346e+01 110 107 102
1.061518e+01 1.348858e+01 -4.929616e+01 177 161 95
1.332532e+01 1.319586e+01 -4.782608e+01 206 219 129
3.336119e+00 1.634960e+01 -5.699044e+01 228 227 147
1.630185e+01 1.532489e+01 -4.971359e+01 238 238 129
3.989403e+00 2.474980e+01 -8.496585e+01 164 164 160
3.989403e+00 2.474980e+01 -8.496585e+01 164 164 160
-4.831163e+01 3.491308e+01 -1.113237e+02 124 97 82
-4.969251e+01 3.465966e+01 -1.090457e+02 247 219 195
-5.324313e+01 3.488604e+01 -1.025701e+02 222 198 162
-4.932310e+01 4.084751e+01 -1.085740e+02 244 206 180
-2.565527e+01 -8.153457e-01 -1.657857e+00 20 28 18
9.801606e+00 9.448473e+00 -4.370351e+01 147 130 86
-9.113778e+00 1.726712e+00 9.514337e-01 50 54 65
6.265570e+00 1.071722e+01 -4.709045e+01 170 182 82
9.174948e+00 1.093427e+01 -4.669346e+01 140 124 75
1.238471e+01 1.042233e+01 -4.388014e+01 161 158 91
1.215190e+01 1.050446e+01 -4.440631e+01 135 146 60
5.996764e+00 1.142775e+01 -4.847029e+01 118 116 50
2.516082e+00 1.192997e+01 -5.069316e+01 239 226 169
2.516082e+00 1.192997e+01 -5.069316e+01 239 226 169
-3.091323e-01 1.280933e+01 -5.263022e+01 62 65 36
-3.087682e-01 1.281554e+01 -5.264244e+01 62 65 36
-7.450082e-01 1.306011e+01 -5.267195e+01 52 39 34
1.295636e+01 1.158831e+01 -4.586257e+01 145 138 72
1.451282e+01 1.148948e+01 -4.525115e+01 224 213 125
1.366286e+01 1.156784e+01 -4.516007e+01 236 231 147
9.535743e+00 1.235297e+01 -4.800402e+01 217 219 140
5.895458e+00 1.283498e+01 -5.027261e+01 249 252 150
-6.742853e-02 1.347524e+01 -5.296354e+01 211 223 162
7.861726e+00 1.297168e+01 -4.976591e+01 135 146 78
6.784723e+00 1.335609e+01 -5.064871e+01 236 242 115
-6.346489e+01 2.334739e+01 -8.894220e+01 100 86 84
-6.311582e+01 2.327755e+01 -8.767482e+01 219 212 175
6.301578e+00 1.399293e+01 -5.201034e+01 218 220 117
-6.303727e+01 2.360793e+01 -8.728886e+01 232 219 187
1.574495e+01 1.298969e+01 -4.689159e+01 157 173 81
7.052071e+00 1.407903e+01 -5.182949e+01 190 178 102
3.800797e+00 1.464066e+01 -5.410208e+01 165 169 94
1.716419e+01 1.315470e+01 -4.653926e+01 131 128 60
1.698851e+01 1.345845e+01 -4.709309e+01 247 234 166
4.674246e+00 1.606093e+01 -5.506051e+01 229 239 154
1.526233e+01 1.485238e+01 -4.988651e+01 231 225 113
1.578804e+01 1.495029e+01 -4.969989e+01 223 219 112
3.798821e+00 2.491649e+01 -8.439423e+01 251 248 241
3.759543e+00 2.483051e+01 -8.411079e+01 251 248 241
-5.721440e+01 3.052588e+01 -9.678295e+01 238 217 172
-5.223778e+01 3.281191e+01 -1.053390e+02 254 243 218
-4.788397e+01 3.434253e+01 -1.116189e+02 237 210 187
-5.195968e+01 3.359339e+01 -1.060497e+02 236 237 231
-5.195968e+01 3.359339e+01 -1.060497e+02 236 237 231
-5.299531e+01 3.310449e+01 -1.039728e+02 250 232 201
1.150679e+01 1.836088e+01 -5.294719e+01 127 122 85
-5.187987e+01 3.382287e+01 -1.056635e+02 237 242 239
-5.027513e+01 3.750975e+01 -1.072217e+02 235 228 201
-5.198748e+01 3.717637e+01 -1.048225e+02 250 252 250
-6.655348e+01 3.362699e+01 -8.532608e+01 146 93 80
-8.061615e+00 -4.603537e+00 5.391938e+00 232 233 233
4.374969e+00 -2.796430e+00 -3.343624e+00 189 194 186
-2.315728e+01 -2.308185e+00 -9.576084e-01 142 141 126
1.564505e+01 7.367286e+00 -3.850125e+01 144 132 131
-1.282009e+01 8.362486e-01 4.001388e+00 190 209 234
1.101659e+01 9.031271e+00 -4.282261e+01 94 98 80
1.310951e+01 8.744342e+00 -4.115402e+01 144 143 109
6.308736e+00 1.051198e+01 -4.694136e+01 252 241 177
5.157318e+00 1.129683e+01 -4.869562e+01 253 242 176
5.088387e+00 1.156471e+01 -4.865023e+01 228 230 133
1.224587e+01 1.078312e+01 -4.475078e+01 222 224 126
9.060164e+00 1.126314e+01 -4.633993e+01 222 217 127
1.151019e+01 1.110667e+01 -4.540765e+01 232 227 120
8.433822e-01 1.264586e+01 -5.264393e+01 142 98 61
6.657318e+00 1.195923e+01 -4.885435e+01 254 249 185
-6.567281e-01 1.279659e+01 -5.255712e+01 67 63 49
-5.092771e-01 1.286431e+01 -5.238434e+01 199 203 157
-4.955087e-01 1.289364e+01 -5.250898e+01 199 203 157
-2.235470e-01 1.323587e+01 -5.254655e+01 45 50 23
1.166147e+00 1.390039e+01 -5.443702e+01 255 251 187
1.109172e+01 1.257854e+01 -4.752006e+01 224 218 118
6.527373e+00 1.351803e+01 -5.115280e+01 169 174 63
-6.472041e+01 2.304592e+01 -8.708221e+01 92 89 76
5.767551e+00 1.404444e+01 -5.257575e+01 231 228 125
-6.334469e+01 2.345163e+01 -8.735241e+01 119 115 107
3.462229e+00 1.454924e+01 -5.418588e+01 192 198 101
1.308601e+00 1.504381e+01 -5.631885e+01 230 230 153
7.671707e+00 1.402229e+01 -5.152078e+01 95 98 40
1.372892e+01 1.337209e+01 -4.814612e+01 212 213 138
9.783450e+00 1.385845e+01 -5.011231e+01 220 207 138
1.240026e+01 1.331930e+01 -4.753287e+01 169 169 85
1.877874e-01 1.572066e+01 -5.745542e+01 236 230 162
1.730018e+01 1.316775e+01 -4.636889e+01 222 225 140
1.724548e+01 1.313855e+01 -4.618028e+01 222 225 140
2.348788e+00 1.569752e+01 -5.639646e+01 222 225 142
5.154735e+00 1.549519e+01 -5.486688e+01 245 241 138
1.412907e+01 1.425836e+01 -4.922977e+01 225 221 121
-8.994921e-01 1.663227e+01 -5.928021e+01 194 186 110
1.082700e+01 1.516057e+01 -5.206622e+01 225 232 119
-6.028801e+01 2.599754e+01 -9.171373e+01 255 235 204
-6.028801e+01 2.599754e+01 -9.171373e+01 255 235 204
3.938803e+00 1.657266e+01 -5.703879e+01 160 153 78
3.938803e+00 1.657266e+01 -5.703879e+01 160 153 78
1.022469e+01 1.652283e+01 -5.477148e+01 227 228 139
9.935621e+00 1.663967e+01 -5.523411e+01 213 213 120
-5.768128e+01 2.827978e+01 -9.648223e+01 234 222 170
1.193103e+01 1.686990e+01 -5.339180e+01 255 255 222
-5.218450e+01 3.231794e+01 -1.055048e+02 248 229 210
-5.766912e+01 3.038674e+01 -9.572933e+01 234 210 175
-5.762034e+01 3.063052e+01 -9.544283e+01 233 218 177
-5.756931e+01 3.085199e+01 -9.634610e+01 227 203 170
-5.222084e+01 3.395116e+01 -1.050783e+02 255 242 222
-5.268010e+01 3.394419e+01 -1.034506e+02 157 142 106
-5.447171e+01 3.396260e+01 -1.006663e+02 226 215 153
-5.183029e+01 3.518024e+01 -1.050044e+02 248 251 251
-5.822888e+01 3.260111e+01 -9.420654e+01 255 238 202
-5.824405e+01 3.261270e+01 -9.424669e+01 255 238 202
-4.975229e+01 3.859836e+01 -1.081489e+02 254 226 209
-5.159740e+01 3.785865e+01 -1.047630e+02 238 238 230
-4.988279e+01 4.007010e+01 -1.078519e+02 248 219 194
-6.377078e+01 3.391747e+01 -8.547080e+01 204 186 167
-4.338902e+00 -2.076626e+00 5.899617e+00 255 255 255
-1.051672e+01 -2.591262e+00 4.115004e+00 153 168 175
-1.594317e+01 4.509747e+00 -4.523736e+00 181 200 154
-4.983071e+00 -1.895814e+00 7.069725e+00 239 146 83
-1.205251e+01 4.755991e-01 4.504564e+00 253 253 254
-9.033166e+00 -2.975581e+00 5.532669e+00 26 28 29
-8.083304e+00 -3.637362e+00 5.795031e+00 182 192 199
-8.064797e+00 -3.637369e+00 5.774364e+00 182 192 199
-8.196920e+00 -4.780580e+00 5.547924e+00 135 143 149
2.585664e+01 1.266031e+01 -4.172973e+01 187 176 108
-8.953860e+00 -3.794797e+00 5.510108e+00 172 183 187
-8.953860e+00 -3.794797e+00 5.510108e+00 172 183 187
-7.781262e+00 -3.568852e+00 5.996313e+00 187 194 203
-4.626072e+00 -1.990265e+00 7.176321e+00 254 255 253
-1.669399e+01 9.992606e-03 2.823161e+00 241 250 254
-8.169611e+00 -3.005611e+00 5.930200e+00 217 224 223
-8.564565e+00 -3.332737e+00 5.732465e+00 200 210 219
1.537939e+01 -6.296789e-01 -9.197660e+00 121 123 116
2.507555e+01 1.114081e+01 -3.986220e+01 91 89 58
-1.784195e+01 -1.501974e+00 2.152402e+00 192 211 223
-1.171781e+01 -2.078169e+00 4.743522e+00 210 223 221
-1.169048e+01 -2.035594e+00 4.612346e+00 19 29 46
1.362612e+01 -1.713878e+00 -5.750480e+00 205 213 204
-7.148957e+00 -4.742847e+00 5.970308e+00 72 73 72
-8.061065e+00 -2.946806e+00 5.981837e+00 137 144 160
2.631648e+01 1.236241e+01 -4.054875e+01 147 142 77
-1.819966e+01 3.682339e+00 1.339011e+00 92 117 132
7.189717e+00 1.360881e+01 -5.114046e+01 207 198 78
-9.074583e+00 -2.707733e+00 5.606121e+00 150 146 136
1.369769e+01 1.056845e+01 -4.448053e+01 139 122 63
1.332613e+01 1.319557e+01 -4.782763e+01 202 212 118
1.482443e+01 1.275541e+01 -4.686964e+01 227 199 135
6.304343e+00 1.305357e+01 -5.062250e+01 98 88 27
6.739501e+00 1.338391e+01 -5.076682e+01 216 212 92
6.739501e+00 1.338391e+01 -5.076682e+01 216 212 92
-7.684009e+00 -4.194565e+00 5.839775e+00 77 78 79
1.429204e+01 9.363967e+00 -4.215585e+01 116 98 34
1.527653e+01 1.462416e+01 -4.931783e+01 79 61 16
-8.329072e+00 -4.962291e+00 5.387301e+00 161 154 146
-8.905421e+00 -4.924762e+00 5.104931e+00 169 158 150
-9.065326e+00 -4.858468e+00 5.057029e+00 160 152 139
-9.452549e+00 -4.546256e+00 4.952644e+00 183 176 169
-8.692734e+00 -2.682299e+00 5.788323e+00 145 136 130
1.815195e+01 1.426610e+01 -4.749155e+01 190 162 105
-7.970319e+00 -3.046155e+00 6.028052e+00 154 150 144
-3.273916e+00 7.054453e-01 2.931579e+00 126 115 113
-5.071233e+01 3.111348e+01 -1.083652e+02 238 226 201
-3.410075e+00 6.907390e-01 3.030794e+00 133 117 120
-5.336812e+01 3.126480e+01 -1.038432e+02 247 216 175
-5.020330e+01 3.250281e+01 -1.087086e+02 230 212 192
-5.094664e+01 3.225063e+01 -1.077725e+02 127 125 121
-4.784038e+01 3.460109e+01 -1.126672e+02 131 116 109
-5.102204e+01 3.475150e+01 -1.071437e+02 124 124 116
-5.102204e+01 3.475150e+01 -1.071437e+02 124 124 116
-2.662347e+01 7.152854e-01 -2.635056e+00 167 191 210
-2.454165e+01 -2.379217e+00 -1.659423e+00 171 179 188
-2.005615e+01 2.012804e+01 -7.200807e+01 128 128 95
-1.126244e+01 -3.363737e+00 4.483540e+00 145 158 171
-2.149893e+01 -2.422697e+00 -3.240052e-02 114 130 141
-5.423418e+01 3.649716e+01 -1.003022e+02 169 157 124
-5.423418e+01 3.649716e+01 -1.003022e+02 169 157 124
-5.382418e+01 3.788253e+01 -1.010153e+02 218 210 167
-2.109218e+01 1.777072e+01 -6.985108e+01 212 218 183
-2.109218e+01 1.777072e+01 -6.985108e+01 212 218 183
-5.903179e+01 3.147012e+01 -9.375464e+01 250 231 198
-4.857643e+01 3.955228e+01 -1.100876e+02 246 221 191
-5.091631e+01 3.762792e+01 -1.064580e+02 225 215 194
-4.782323e+01 3.275993e+01 -1.132561e+02 137 122 115
-5.474816e+01 3.267899e+01 -1.007847e+02 237 204 170
-5.028481e+01 3.566167e+01 -1.078361e+02 228 216 189
-4.161339e+01 3.729805e+01 -1.100294e+02 207 204 185
-5.054067e+01 3.882674e+01 -1.066482e+02 165 150 130
-8.573772e+00 -3.606172e+00 5.509936e+00 174 183 189
3.852545e+01 9.001283e+00 -3.070599e+01 168 164 87
-2.423246e+01 -1.633313e+00 -1.372035e+00 30 27 28
-2.321488e+01 1.998442e+00 -4.562794e-01 203 225 246
-2.324382e+01 -2.637526e+00 -1.065052e+00 241 240 241
3.536133e+01 1.432428e+01 -4.195188e+01 192 192 114
-7.755153e+00 -4.254450e+00 5.826920e+00 146 154 158
-8.343702e+00 -3.832158e+00 5.704509e+00 99 100 94
-2.865666e+01 1.431427e-01 -2.976977e+00 118 137 153
4.399270e+01 8.673630e+00 -2.816461e+01 140 151 80
4.312266e+01 2.020430e+01 -5.682355e+01 225 219 203
4.493923e+01 1.787928e+01 -3.290302e+01 84 83 79
-2.382430e+01 -2.205628e+00 -1.208344e+00 187 195 206
-2.382430e+01 -2.205628e+00 -1.208344e+00 187 195 206
-2.175905e+01 -2.368104e+00 -1.193809e-01 131 145 158
-2.279222e+01 -1.322166e+00 -4.242125e+00 27 27 37
4.023518e+01 8.768263e+00 -2.968201e+01 126 139 65
3.802299e+01 9.352444e+00 -3.148634e+01 76 73 37
3.802299e+01 9.352444e+00 -3.148634e+01 76 73 37
4.081442e+01 9.325075e+00 -2.995586e+01 40 35 34
4.025465e+01 1.140369e+01 -3.388374e+01 165 162 78
4.038707e+01 1.171607e+01 -3.336069e+01 73 70 50
4.136717e+01 1.670896e+01 -4.610442e+01 237 236 216
5.743956e+01 1.835381e+01 -5.143308e+01 224 220 206
-9.105381e+00 -3.929250e+00 5.343544e+00 172 177 181
-8.480790e+00 -3.680921e+00 5.667398e+00 174 182 194
-2.627419e+01 2.071759e+00 -1.763893e+00 57 76 99
-2.627419e+01 2.071759e+00 -1.763893e+00 57 76 99
3.628321e+01 7.078713e+00 -2.843345e+01 100 114 49
-1.565383e+01 1.617558e+01 -6.450162e+01 184 179 115
-1.563879e+01 1.686092e+01 -6.595834e+01 212 197 137
4.233936e+01 8.435627e+00 -2.835464e+01 140 142 81
4.105283e+01 1.149210e+01 -3.294145e+01 62 67 47
5.969870e+01 1.818810e+01 -4.996817e+01 235 232 214
-8.206826e+00 -2.891225e+00 5.855140e+00 29 31 34
-1.749178e+01 -4.704053e-02 2.531677e+00 158 168 190
3.934507e+01 5.754779e+00 -2.512950e+01 74 73 65
3.604163e+01 7.359950e+00 -2.961778e+01 91 92 62
-1.768715e+01 1.733853e+01 -6.802472e+01 124 125 68
-1.625159e+01 1.724208e+01 -6.660182e+01 196 184 134
3.056250e+01 9.376186e+00 -3.507247e+01 172 182 98
3.220032e+01 9.345929e+00 -3.362220e+01 110 109 57
4.108016e+01 8.668257e+00 -2.961802e+01 96 85 61
-1.262689e+01 1.786139e+01 -6.599511e+01 197 190 120
-1.711578e+01 1.883985e+01 -6.930837e+01 228 210 165
4.322288e+01 8.544043e+00 -2.782109e+01 121 140 58
4.356588e+01 8.895900e+00 -2.836306e+01 68 47 41
4.239358e+01 9.142239e+00 -2.844823e+01 48 37 28
3.717272e+01 1.076232e+01 -3.422433e+01 181 169 102
4.233302e+01 9.569758e+00 -2.815599e+01 49 50 37
3.394480e+01 1.163199e+01 -3.683161e+01 113 121 60
3.899846e+01 1.086471e+01 -3.339158e+01 79 82 39
4.417561e+01 1.839972e+01 -5.414841e+01 95 91 58
3.791337e+01 5.880748e+00 -2.612919e+01 107 103 95
3.799489e+01 6.058377e+00 -2.667891e+01 105 102 68
3.514481e+01 6.684230e+00 -2.870108e+01 171 175 107
-1.588479e+01 1.632230e+01 -6.531772e+01 135 136 76
3.412394e+01 8.058451e+00 -3.138914e+01 123 130 70
4.110420e+01 7.530446e+00 -2.795979e+01 74 69 43
-1.379278e+01 1.676921e+01 -6.491671e+01 190 180 113
-1.634383e+01 1.767590e+01 -6.747492e+01 141 130 77
3.789732e+01 8.836234e+00 -3.187926e+01 116 107 66
-1.567846e+01 1.833532e+01 -6.804462e+01 102 81 40
-1.743334e+01 1.871918e+01 -6.940540e+01 116 107 66
3.969699e+01 9.415742e+00 -3.100611e+01 71 69 46
3.550591e+01 1.045432e+01 -3.427408e+01 203 203 92
3.550591e+01 1.045432e+01 -3.427408e+01 203 203 92
3.563935e+01 1.118411e+01 -3.539273e+01 204 174 130
4.083319e+01 1.184272e+01 -3.386170e+01 82 76 58
3.954271e+01 1.243523e+01 -3.558397e+01 193 182 94
4.283155e+01 1.124054e+01 -2.885827e+01 178 168 135
6.269836e+01 1.701962e+01 -4.500043e+01 80 81 58
-2.470616e+01 -2.208534e+00 -1.774864e+00 121 111 97
-8.236834e+00 -3.834140e+00 5.801509e+00 181 187 175
-7.805874e+00 -3.444875e+00 5.843488e+00 81 90 94
-2.543337e+01 -6.429057e-01 -1.218350e+00 159 171 156
-2.294684e+01 5.988406e-01 9.245304e-02 115 120 126
3.469705e+01 7.423372e+00 -3.045545e+01 192 185 130
-1.787340e+01 1.659758e+01 -6.698848e+01 205 204 118
-1.518830e+01 1.624851e+01 -6.491015e+01 197 196 117
3.038021e+01 8.779861e+00 -3.418644e+01 62 60 29
3.977652e+01 8.406126e+00 -2.977073e+01 86 82 50
3.471955e+01 9.351904e+00 -3.348405e+01 209 200 122
-1.765004e+01 1.855457e+01 -6.934029e+01 217 198 147
4.326088e+01 8.647633e+00 -2.859479e+01 60 43 33
-1.351600e+01 1.817921e+01 -6.668838e+01 200 194 132
3.819960e+01 9.474192e+00 -3.154501e+01 84 89 45
-1.439782e+01 1.891742e+01 -6.849677e+01 138 127 61
4.229768e+01 9.296979e+00 -2.873153e+01 184 192 142
4.133270e+01 9.930160e+00 -2.904933e+01 48 47 34
4.111032e+01 1.003838e+01 -2.926432e+01 208 211 171
4.111032e+01 1.003838e+01 -2.926432e+01 208 211 171
3.007736e+01 1.240536e+01 -3.919565e+01 111 99 34
3.007736e+01 1.240536e+01 -3.919565e+01 111 99 34
4.326179e+01 1.090863e+01 -2.858728e+01 215 220 157
4.208289e+01 1.108783e+01 -2.910552e+01 198 220 169
4.347112e+01 1.098925e+01 -2.853702e+01 87 69 31
6.001861e+01 1.804343e+01 -4.949074e+01 97 100 76
1.117160e+01 2.130404e+01 -5.257646e+01 199 188 157
1.444631e+01 3.133934e+01 -7.651894e+01 138 126 130
-2.410783e+01 -3.538471e+00 -1.758094e+00 206 208 208
-2.319661e+01 -3.192939e+00 -1.397050e+00 247 248 237
-2.352763e+01 -2.559704e+00 -1.142459e+00 18 21 58
2.955839e+01 8.677632e+00 -3.461126e+01 141 127 73
4.179844e+01 7.292857e+00 -2.720633e+01 122 94 65
3.145770e+01 9.413304e+00 -3.463256e+01 210 209 123
-1.740504e+01 1.851126e+01 -6.952934e+01 229 215 158
-1.725335e+01 1.917935e+01 -6.973735e+01 241 221 185
3.002894e+01 1.155051e+01 -3.834874e+01 188 173 121
4.150831e+01 9.503978e+00 -2.918205e+01 169 174 146
3.417827e+01 1.123593e+01 -3.620703e+01 194 184 118
3.153118e+01 1.190302e+01 -3.788764e+01 93 95 37
2.976494e+01 1.243107e+01 -3.906338e+01 115 107 39
3.587361e+01 1.227409e+01 -3.701966e+01 105 103 52
4.120429e+01 1.228145e+01 -3.415572e+01 78 68 46
6.009883e+01 1.828758e+01 -4.954744e+01 228 230 206
6.290068e+01 1.778721e+01 -4.527017e+01 105 103 70
1.440149e+01 3.100521e+01 -7.608134e+01 241 233 225
-1.228426e+01 -4.085162e+00 3.293025e+00 13 13 13
-8.573526e+00 -3.663015e+00 5.695462e+00 151 160 174
-1.145851e+01 -2.783554e+00 4.746171e+00 135 148 156
-2.503137e+01 -5.272460e-01 -1.459410e+00 22 23 22
-2.898141e+00 -3.480589e+00 5.926185e+00 248 253 249
-6.939457e+00 -2.205195e+00 6.781274e+00 230 240 249
-5.650165e+01 3.129540e+01 -1.012236e+02 255 249 208
-6.549573e+00 -4.709153e+00 5.121940e+00 14 14 14
-1.090396e+01 -3.621257e+00 4.489170e+00 152 152 141
-8.962142e+01 2.684198e+01 -1.008045e+02 244 175 142
-8.962142e+01 2.684198e+01 -1.008045e+02 244 175 142
-1.907828e+01 3.161653e+01 -9.703397e+01 175 175 161
-4.905944e+00 -7.391460e+00 1.272206e+01 173 170 170
-1.464432e+00 -3.150211e+00 4.221185e+00 158 169 161
-9.663115e+00 -3.546110e+00 5.088010e+00 177 170 158
-2.545833e+00 -1.527730e+00 5.347004e+00 254 254 254
-9.197314e+01 2.473768e+01 -1.024678e+02 210 203 169
-8.714632e+01 2.567492e+01 -9.956680e+01 93 68 64
-9.330668e+01 2.824121e+01 -1.027715e+02 109 69 66
-9.330668e+01 2.824121e+01 -1.027715e+02 109 69 66
-9.512031e+01 3.541400e+01 -1.012947e+02 118 72 64
-9.586806e+00 -4.113743e+00 4.928999e+00 199 197 193
-9.518182e+00 -2.791613e+00 5.338891e+00 54 52 53
-2.394318e+00 -1.059235e+00 5.552086e+00 210 215 218
7.196768e+00 1.365658e+01 -5.128715e+01 234 232 117
-8.976488e+01 2.348291e+01 -1.011775e+02 241 236 216
-8.918214e+01 2.454057e+01 -1.005790e+02 108 107 102
-8.587774e+01 2.448512e+01 -9.853031e+01 90 91 79
-9.128002e+01 2.576003e+01 -1.019423e+02 91 79 72
-9.405777e+01 2.706758e+01 -1.030373e+02 240 179 149
-9.496557e+01 2.857049e+01 -1.034011e+02 234 164 131
-9.377026e+01 2.939890e+01 -1.022576e+02 117 77 66
-9.479824e+01 3.252057e+01 -1.021906e+02 112 67 62
-9.303078e+01 3.253675e+01 -1.008940e+02 246 185 148
-8.953461e+00 -4.628059e+00 5.146387e+00 22 21 28
-4.559904e+00 -1.972271e+00 6.888479e+00 254 253 253
-2.448842e+01 -1.733507e+00 -1.415135e+00 233 234 223
6.444318e+00 1.118305e+01 -4.812684e+01 232 233 146
-8.875013e+01 2.201808e+01 -1.007781e+02 237 237 220
-8.802970e+01 2.289229e+01 -1.003239e+02 134 134 136
-8.744935e+01 2.466777e+01 -9.931815e+01 201 193 156
-9.283976e+01 3.122148e+01 -1.012550e+02 241 170 135
-5.319099e+01 3.418539e+01 -1.020829e+02 250 216 173
-8.730789e+01 3.322037e+01 -9.746710e+01 237 173 143
-9.137989e+01 3.626941e+01 -9.923487e+01 140 104 87
-8.712366e+01 3.536222e+01 -9.584132e+01 234 176 142
-7.848978e+00 -5.497056e+00 5.378943e+00 21 23 22
-9.110455e+00 -3.456073e+00 5.454767e+00 161 171 172
-8.051636e+00 -3.066782e+00 5.970171e+00 31 30 36
-2.410238e+01 -3.231384e+00 -1.634091e+00 47 42 50
-3.938187e+00 -2.069286e+00 6.992106e+00 173 168 167
-3.934027e+00 -2.077312e+00 7.057813e+00 173 168 167
8.005894e+00 9.173727e+00 -4.421572e+01 239 244 241
-1.233198e+00 1.154738e+01 -5.259519e+01 255 252 207
3.327140e-01 1.180716e+01 -5.193712e+01 79 68 44
-3.298261e+00 1.225148e+01 -5.459638e+01 216 225 132
-2.871512e+00 1.235640e+01 -5.406870e+01 103 109 67
-3.462994e+00 1.286672e+01 -5.542113e+01 143 136 95
-3.148932e+00 1.305258e+01 -5.498601e+01 97 107 64
-4.070130e+00 1.381274e+01 -5.730979e+01 229 227 139
-9.093798e+01 2.160964e+01 -1.024647e+02 254 252 241
-9.136080e+01 2.220102e+01 -1.021976e+02 156 154 143
1.016700e+01 1.441141e+01 -5.129642e+01 183 161 102
1.019417e+01 1.632763e+01 -5.504939e+01 212 219 120
-9.470282e+01 2.646939e+01 -1.042617e+02 117 89 72
-2.107785e+01 2.759601e+01 -9.928794e+01 255 254 253
4.541947e+00 2.516745e+01 -8.637696e+01 247 247 234
-5.315624e+01 3.067683e+01 -1.036481e+02 227 191 157
-5.263948e+01 3.142188e+01 -1.054945e+02 244 226 201
-8.912943e+01 3.023269e+01 -9.936718e+01 210 146 116
-8.705482e+01 3.175553e+01 -9.768328e+01 235 170 137
-8.988191e+01 3.459452e+01 -9.851827e+01 225 160 129
-9.182787e+01 3.542975e+01 -9.964015e+01 238 165 133
-8.993483e+01 3.643698e+01 -9.793318e+01 213 156 124
-8.524801e+00 -4.328268e+00 5.541894e+00 144 153 157
-2.153348e+01 -2.777488e+00 -5.234282e-01 58 62 62
6.547158e+00 9.369868e+00 -4.514330e+01 243 243 240
5.800414e+00 9.563548e+00 -4.516891e+01 144 136 108
2.452421e+00 9.991704e+00 -4.744515e+01 130 126 87
5.733015e+00 9.943577e+00 -4.577126e+01 226 218 147
-1.325096e-02 1.123677e+01 -5.150837e+01 61 50 33
6.404004e-01 1.148258e+01 -5.147005e+01 214 213 131
-9.844669e-01 1.197427e+01 -5.266188e+01 95 65 45
7.195703e+00 1.171840e+01 -4.857776e+01 179 189 103
-4.424054e+00 1.401230e+01 -5.737350e+01 186 183 123
2.866910e+00 1.446643e+01 -5.437794e+01 167 170 93
-9.234935e+01 2.417106e+01 -1.025593e+02 232 223 196
-8.949121e+01 2.530423e+01 -1.007003e+02 176 153 127
-8.919861e+01 2.581365e+01 -1.007369e+02 116 80 67
-8.433376e+01 2.521877e+01 -9.774153e+01 179 132 103
-8.335802e+01 2.571457e+01 -9.715882e+01 245 198 161
-9.161423e+01 2.820250e+01 -1.011922e+02 224 155 127
-8.677744e+01 2.990730e+01 -9.805315e+01 233 163 133
-9.202717e+01 3.198507e+01 -1.006735e+02 197 125 107
-4.846301e+01 3.427225e+01 -1.105981e+02 235 212 188
-8.613795e+01 3.139818e+01 -9.726638e+01 146 93 77
-2.181566e+01 3.206297e+01 -9.849916e+01 194 189 176
-5.013704e+01 3.484188e+01 -1.088711e+02 144 131 115
-9.439164e+01 3.571515e+01 -1.010415e+02 149 92 84
-9.024300e+01 3.555847e+01 -9.857048e+01 209 144 120
-9.453204e+01 3.696345e+01 -1.007064e+02 138 87 76
-6.782241e+01 3.316226e+01 -8.636698e+01 224 177 145
-6.562915e+01 3.299257e+01 -8.427773e+01 242 183 149
-1.019405e+01 -5.332920e+00 3.983769e+00 105 102 95
-8.069730e+00 -4.691083e+00 5.467032e+00 64 68 98
-9.290824e+00 -4.393431e+00 5.037331e+00 105 88 88
-2.231858e+01 -3.011604e+00 -7.219751e-01 109 111 106
-2.146535e+01 -2.527904e+00 7.759609e-03 36 44 47
-2.331281e+01 -2.364667e+00 -1.122209e+00 161 159 158
-1.184356e+01 -2.094328e+00 4.666359e+00 244 250 243
-2.344156e+01 -1.613473e+00 -9.470073e-01 205 215 220
4.963689e+00 2.380476e+00 -2.205884e+01 166 163 150
-1.661622e+01 -5.520890e-02 2.873859e+00 216 222 226
7.139338e+00 9.279743e+00 -4.453454e+01 240 237 230
6.768680e+00 9.508506e+00 -4.500690e+01 181 163 130
5.193114e+00 9.711146e+00 -4.600004e+01 187 179 130
3.927387e+00 9.829380e+00 -4.678601e+01 213 197 142
-8.605010e+00 2.127606e+00 -9.655021e-02 42 44 39
3.168358e+00 1.194364e+01 -5.051900e+01 254 244 186
-3.785563e+00 1.248970e+01 -5.464339e+01 204 211 121
7.231401e+00 1.206910e+01 -4.899777e+01 229 229 135
-9.381358e+01 2.155483e+01 -1.044187e+02 175 173 169
-3.457749e+00 1.340659e+01 -5.629220e+01 244 237 163
3.164055e-01 1.303538e+01 -5.298171e+01 106 91 47
-9.187611e+01 2.224261e+01 -1.028931e+02 154 152 138
-1.496987e+00 1.403622e+01 -5.411640e+01 92 82 55
3.796254e+00 1.508031e+01 -5.507561e+01 230 224 167
-8.766578e+01 2.430919e+01 -9.964407e+01 203 196 170
-1.256571e+01 1.880299e+01 -6.768009e+01 245 238 169
-1.470823e+01 1.891394e+01 -6.843259e+01 155 136 57
-1.471504e+01 2.493666e+01 -8.996297e+01 212 208 135
-1.583948e+01 2.527798e+01 -9.137018e+01 163 159 95
3.758722e+00 2.499217e+01 -8.485669e+01 252 249 239
-8.933061e+01 2.883966e+01 -1.002947e+02 227 163 128
-5.209209e+01 3.140065e+01 -1.060834e+02 123 113 112
-8.601739e+01 2.970871e+01 -9.764556e+01 164 101 84
-8.508879e+01 2.977174e+01 -9.710778e+01 249 184 153
-8.620002e+01 3.026659e+01 -9.783605e+01 237 177 145
-7.429705e+01 2.860998e+01 -9.119382e+01 237 168 146
-2.056380e+01 2.374265e+01 -7.159244e+01 142 137 108
-8.357447e+01 3.061894e+01 -9.623659e+01 244 185 155
-8.439058e+01 3.113130e+01 -9.634415e+01 157 97 85
-5.272432e+01 3.340815e+01 -1.039915e+02 130 108 93
-5.272432e+01 3.340815e+01 -1.039915e+02 130 108 93
-9.355470e+01 3.414353e+01 -1.009967e+02 229 168 139
-9.184100e+01 3.381204e+01 -9.990836e+01 237 166 138
-9.184100e+01 3.381204e+01 -9.990836e+01 237 166 138
-9.414989e+01 3.439656e+01 -1.012503e+02 133 78 73
-9.358858e+01 3.703193e+01 -1.002654e+02 217 157 129
-5.413138e+01 3.706232e+01 -1.014768e+02 224 214 169
-9.184275e+01 3.764077e+01 -9.904202e+01 174 114 90
-7.177546e+00 -4.746578e+00 5.999723e+00 90 90 84
-8.904718e+00 -4.080879e+00 5.357091e+00 25 24 41
-2.482954e+01 -2.539610e+00 -1.906939e+00 255 255 251
-2.283095e+00 -1.609129e+00 5.217522e+00 42 46 53
-2.363071e+00 -1.291534e+00 5.406583e+00 48 46 45
-1.749793e+01 -6.099727e-02 2.539718e+00 136 146 167
9.817374e+00 9.082189e+00 -4.368236e+01 239 240 237
7.509054e+00 9.563335e+00 -4.488523e+01 232 227 154
-1.602182e+00 1.170498e+01 -5.262007e+01 65 48 37
6.118909e+00 1.126422e+01 -4.837090e+01 217 217 116
-7.155117e+00 1.285764e+01 -5.727853e+01 255 223 149
-9.477089e+01 2.095056e+01 -1.047810e+02 226 220 197
4.387471e+00 1.257280e+01 -5.145195e+01 244 245 153
3.707373e+00 1.262322e+01 -5.155315e+01 237 233 146
-9.030071e+00 1.375603e+01 -5.907880e+01 228 229 150
6.573211e+00 1.234738e+01 -4.927614e+01 226 230 150
-8.939186e+01 2.162687e+01 -1.016172e+02 245 246 231
-2.215151e+00 1.329681e+01 -5.365907e+01 166 171 118
-2.211618e+00 1.330832e+01 -5.374950e+01 166 171 118
-9.551150e+00 1.489978e+01 -6.103432e+01 151 135 84
-9.551150e+00 1.489978e+01 -6.103432e+01 151 135 84
-6.858553e-01 1.373981e+01 -5.273893e+01 222 233 177
2.993027e+00 1.419287e+01 -5.423669e+01 228 234 125
-1.360342e+01 1.632741e+01 -6.458892e+01 245 239 173
7.651945e+00 1.432485e+01 -5.203510e+01 231 229 138
4.729896e+00 1.501729e+01 -5.444120e+01 241 238 146
-1.374811e+01 1.690301e+01 -6.543862e+01 229 218 136
1.015468e+01 1.460049e+01 -5.157742e+01 166 154 92
3.969948e-01 1.571093e+01 -5.712539e+01 187 178 120
2.376855e+00 1.583798e+01 -5.707631e+01 225 227 133
-8.702855e+01 2.448516e+01 -9.942978e+01 174 169 138
-9.421854e+01 2.545852e+01 -1.033500e+02 171 163 132
8.781526e+00 1.587537e+01 -5.457413e+01 245 233 157
-1.557672e+01 1.838648e+01 -6.809644e+01 139 106 68
-1.555924e+01 1.835713e+01 -6.796660e+01 139 106 68
-9.161712e+01 2.555511e+01 -1.021742e+02 73 66 56
-1.042510e+01 1.795485e+01 -6.542661e+01 250 229 166
-1.350385e+01 1.831557e+01 -6.722074e+01 238 234 164
-1.029674e+01 1.835340e+01 -6.573346e+01 203 194 105
-6.226732e+01 2.280873e+01 -6.507399e+01 194 182 131
-8.479123e+01 3.138580e+01 -9.605179e+01 224 156 130
-5.329973e+01 3.366272e+01 -1.034660e+02 170 139 104
-5.329973e+01 3.366272e+01 -1.034660e+02 170 139 104
-9.402334e+01 3.356369e+01 -1.012105e+02 162 104 89
-9.291197e+01 3.396002e+01 -1.006408e+02 174 114 88
-9.291197e+01 3.396002e+01 -1.006408e+02 174 114 88
-6.223839e+01 2.418348e+01 -6.443491e+01 236 228 172
-5.308424e+01 3.524399e+01 -1.031736e+02 136 116 92
-5.683890e+01 3.440928e+01 -9.684822e+01 114 104 77
-9.266478e+01 3.630473e+01 -9.987901e+01 221 157 127
-6.237997e+01 2.553544e+01 -6.393426e+01 199 188 143
-2.236049e+01 2.816409e+01 -7.176942e+01 135 126 117
-4.769918e+01 4.044365e+01 -1.119721e+02 255 253 252
-5.345456e+01 3.799491e+01 -1.021813e+02 248 222 189
-9.098474e+01 3.829710e+01 -9.811136e+01 244 190 159
-7.843832e+00 -5.316714e+00 5.595542e+00 90 85 79
-8.775840e+00 -4.808959e+00 5.134334e+00 245 244 244
-8.602642e+00 -4.727218e+00 5.057179e+00 139 130 123
-8.656371e+00 -3.553552e+00 5.579112e+00 57 58 77
-1.064995e+01 -2.470593e+00 5.120473e+00 106 108 103
3.486168e+00 1.324775e+00 -1.879783e+01 254 253 235
-2.331899e+00 -1.229273e+00 5.448410e+00 206 214 190
-2.331899e+00 -1.229273e+00 5.448410e+00 206 214 190
-4.244696e+00 -1.258134e+00 7.084119e+00 63 70 97
-1.733611e+01 -8.420784e-02 2.495786e+00 241 248 238
3.403972e+00 8.776185e+00 -4.572646e+01 73 64 60
-1.239338e+01 4.400699e-01 4.433692e+00 254 254 248
9.186694e+00 8.990387e+00 -4.312773e+01 244 245 242
3.609830e+00 9.610663e+00 -4.641208e+01 245 249 243
-2.665180e+00 1.165546e+01 -5.316616e+01 255 226 149
-6.359070e+00 1.213081e+01 -5.531035e+01 255 255 202
-1.589262e+00 1.188763e+01 -5.271251e+01 215 210 172
-1.028572e+00 1.195892e+01 -5.279014e+01 82 53 41
-5.722278e-01 1.208478e+01 -5.238263e+01 103 80 67
-1.066660e+00 1.218472e+01 -5.249708e+01 77 53 31
5.672517e+00 1.193952e+01 -4.947751e+01 199 181 111
5.672517e+00 1.193952e+01 -4.947751e+01 199 181 111
-9.466746e+00 1.330033e+01 -5.881357e+01 255 248 181
9.264975e+00 1.196847e+01 -4.797295e+01 175 157 81
-1.809611e+00 1.275367e+01 -5.318651e+01 47 45 11
7.775446e-01 1.311760e+01 -5.317248e+01 245 233 157
6.259424e+00 1.293959e+01 -5.074722e+01 250 245 142
6.601609e+00 1.303482e+01 -5.065237e+01 168 153 49
9.259162e+00 1.319759e+01 -4.983000e+01 240 228 129
-9.403057e+00 1.500789e+01 -6.100974e+01 254 223 160
-6.763336e+00 1.493714e+01 -5.971732e+01 166 157 91
-1.230154e+00 1.420953e+01 -5.437491e+01 254 252 179
1.271661e+00 1.456897e+01 -5.556456e+01 182 187 102
-1.385559e+01 1.794095e+01 -6.682527e+01 237 226 161
-1.609939e+01 1.889348e+01 -6.878153e+01 236 226 144
-1.484405e+01 1.978670e+01 -7.070515e+01 252 248 170
-5.523390e+01 3.006431e+01 -1.008602e+02 253 253 249
-8.997080e+01 3.046423e+01 -9.981865e+01 184 124 95
-8.982412e+01 3.039987e+01 -9.958457e+01 184 124 95
-5.863006e+01 2.910464e+01 -9.444969e+01 255 243 202
-5.863006e+01 2.910464e+01 -9.444969e+01 255 243 202
-6.249164e+01 2.212537e+01 -6.530118e+01 207 196 155
-6.271653e+01 2.235078e+01 -6.531254e+01 250 238 204
-5.273972e+01 3.266591e+01 -1.046909e+02 255 233 205
-6.323141e+01 2.304795e+01 -6.530360e+01 254 242 203
-5.357462e+01 3.331750e+01 -1.026671e+02 247 228 175
-5.365888e+01 3.351111e+01 -1.024149e+02 160 142 94
-5.357365e+01 3.390585e+01 -1.024798e+02 243 227 158
-5.080055e+01 3.527341e+01 -1.069982e+02 226 219 201
-5.513584e+01 3.389155e+01 -1.006704e+02 68 62 47
-6.225542e+01 2.437315e+01 -6.424268e+01 242 234 177
-5.922485e+01 3.225346e+01 -9.275403e+01 255 240 209
-6.233455e+01 2.520738e+01 -6.379603e+01 243 232 185
-5.376723e+01 3.641558e+01 -1.007769e+02 155 146 113
-5.064133e+01 3.865792e+01 -1.062352e+02 225 218 189
-5.398959e+01 3.750367e+01 -1.011243e+02 160 146 112
-6.327329e+01 3.358292e+01 -8.552215e+01 216 190 167
-6.704367e+01 3.380167e+01 -8.512349e+01 137 81 70
-8.274368e+00 -3.613993e+00 5.275239e+00 191 189 186
-1.744131e+01 -2.647003e+00 1.424708e+00 152 154 155
4.187639e+01 7.838978e+00 -2.781837e+01 132 138 47
-8.967905e+00 -4.876490e+00 5.353980e+00 224 215 212
3.293747e+01 9.221904e+00 -3.339562e+01 187 178 93
4.212493e+01 1.766326e+01 -5.308712e+01 138 135 51
-7.391057e+00 -2.770256e+00 6.405137e+00 83 79 72
3.058852e+01 9.384516e+00 -3.509826e+01 152 166 76
3.463809e+01 1.110254e+01 -3.571905e+01 177 162 82
4.040785e+01 9.814586e+00 -2.986513e+01 14 14 11
-8.481328e+00 -4.321014e+00 5.445382e+00 180 175 171
4.155169e+01 7.631804e+00 -2.771173e+01 151 144 69
3.003971e+01 1.033135e+01 -3.658707e+01 125 117 63
4.107819e+01 9.389389e+00 -2.915744e+01 13 14 11
3.552897e+01 1.137243e+01 -3.561472e+01 68 69 27
3.818831e+01 1.130333e+01 -3.484139e+01 76 74 27
3.128639e+01 1.263409e+01 -3.901615e+01 201 171 107
4.327665e+01 1.911520e+01 -5.501871e+01 43 41 28
3.407188e+01 9.014343e+00 -3.280127e+01 106 103 46
3.145194e+01 1.188446e+01 -3.780744e+01 72 75 27
4.178546e+01 9.470787e+00 -2.919306e+01 24 20 16
3.116827e+01 1.363278e+01 -4.123721e+01 101 94 22
3.973120e+01 1.173351e+01 -3.445022e+01 212 196 134
-1.780900e+01 9.463631e-01 2.111172e+00 195 194 190
-1.390625e+01 2.081827e+00 3.694225e+00 151 169 131
-2.566444e+01 3.539157e+01 -1.001431e+02 166 163 157
-4.815290e+01 3.711611e+01 -1.115331e+02 241 221 198
-5.119914e+01 3.683990e+01 -1.062837e+02 132 135 140
-6.444149e-01 1.354644e+01 -5.274504e+01 97 90 39
-5.069834e+01 2.971251e+01 -1.088211e+02 190 182 162
-5.009580e+01 3.000189e+01 -1.094306e+02 212 202 167
-4.966287e+01 3.017587e+01 -1.102155e+02 239 211 193
-5.767465e+01 2.773492e+01 -9.666823e+01 225 213 169
-5.767465e+01 2.773492e+01 -9.666823e+01 225 213 169
-5.005893e+01 3.358298e+01 -1.088955e+02 233 219 190
-2.032116e+01 2.365864e+01 -7.156518e+01 245 235 224
-4.796841e+01 4.146590e+01 -1.110664e+02 251 246 246
-4.808230e+01 4.147896e+01 -1.106827e+02 132 120 114
-9.405446e+01 3.597442e+01 -1.023070e+02 207 141 112
-9.563864e+01 3.741353e+01 -1.013389e+02 127 89 74
-9.660665e+01 2.411658e+01 -1.054151e+02 143 138 131
-1.833536e+01 3.339309e+00 1.464309e+00 170 194 180
-9.687274e+01 3.488869e+01 -1.028736e+02 205 149 123
-9.721074e+01 2.207553e+01 -1.060128e+02 221 218 203
-9.525183e+01 3.155097e+01 -1.027294e+02 238 170 137
-1.080742e+02 3.393820e+01 -1.101842e+02 187 130 109
-9.666999e+01 3.304045e+01 -1.033857e+02 229 175 138
-9.532128e+01 3.036998e+01 -1.032723e+02 232 169 129
-1.015114e+02 3.935744e+01 -1.049378e+02 241 172 139
-9.673284e+01 2.398029e+01 -1.052958e+02 128 126 118
-9.673284e+01 2.398029e+01 -1.052958e+02 128 126 118
-9.628288e+01 2.884368e+01 -1.040232e+02 197 132 106
-8.884615e+01 2.944975e+01 -9.928127e+01 213 153 117
-1.002804e+02 3.560073e+01 -1.045828e+02 164 112 89
-9.714364e+01 3.568615e+01 -1.027492e+02 169 117 99
-9.798659e+01 3.586009e+01 -1.031035e+02 240 178 148
-9.785464e+01 3.580184e+01 -1.029105e+02 240 178 148
-5.039176e+01 3.805702e+01 -1.073265e+02 244 232 210
-9.581891e+01 3.930112e+01 -1.011534e+02 244 183 152
-9.742657e+01 3.980341e+01 -1.018449e+02 246 187 150
-4.586757e+01 4.163329e+01 -1.104287e+02 191 183 171
-6.673880e+01 3.425313e+01 -8.487915e+01 231 174 142
3.857142e+00 1.011317e+01 -4.730612e+01 254 249 187
-9.595467e+01 2.096494e+01 -1.053916e+02 213 207 179
-9.728244e+01 2.437792e+01 -1.054777e+02 195 190 172
-9.554458e+01 2.455034e+01 -1.045345e+02 134 132 117
-9.665199e+01 2.660328e+01 -1.048938e+02 222 171 137
-9.579875e+01 2.929492e+01 -1.036291e+02 194 129 97
-9.591898e+01 3.061190e+01 -1.033085e+02 197 134 109
-9.837775e+01 3.528660e+01 -1.035773e+02 188 128 105
-1.048178e+02 3.891191e+01 -1.062782e+02 181 124 104
-5.385107e+01 3.786327e+01 -1.010612e+02 238 227 191
-6.182452e+01 2.759015e+01 -6.356623e+01 239 235 189
-1.519508e+01 -3.071581e+00 2.704619e+00 65 71 75
-8.754325e+00 1.168912e+00 2.709460e+00 91 95 115
-9.713961e+01 2.146106e+01 -1.065419e+02 162 163 149
-1.285857e+01 1.662498e+01 -6.483630e+01 252 236 175
-1.285857e+01 1.662498e+01 -6.483630e+01 252 236 175
-3.423044e-01 1.670895e+01 -5.920219e+01 172 174 89
-8.030696e+01 2.873584e+01 -9.461591e+01 150 90 72
-6.233687e+01 2.221162e+01 -6.541770e+01 245 235 195
-7.301219e+01 3.325767e+01 -8.896557e+01 146 96 72
-6.917561e+01 3.301674e+01 -8.692834e+01 232 187 160
-6.485485e+01 3.326458e+01 -8.411555e+01 255 249 246
-6.564359e+01 3.379081e+01 -8.456451e+01 242 181 151
-1.043371e+01 1.146416e+00 3.244849e+00 52 60 61
-5.657443e-01 1.210646e+01 -5.248412e+01 103 80 67
-6.839715e-01 1.260032e+01 -5.243211e+01 218 210 175
-5.771054e+01 2.786495e+01 -9.625708e+01 187 166 130
-5.714005e+01 2.933980e+01 -9.633943e+01 118 98 67
-5.864777e+01 3.232981e+01 -9.330714e+01 255 240 208
-6.178892e+01 2.547527e+01 -6.465719e+01 242 234 174
