ply
format ascii 1.0
element vertex 909
property float x
property float y
property float z
property uchar diffuse_red
property uchar diffuse_green
property uchar diffuse_blue
end_header
6.032508e+00 1.096839e+01 -4.533209e+01 126 118 54
-4.025521e+00 1.169519e+01 -5.118025e+01 214 215 146
5.203861e+00 1.193384e+01 -4.702062e+01 167 156 92
-1.246314e+00 1.222022e+01 -4.923960e+01 216 225 167
-1.832337e+01 1.730726e+01 -6.480751e+01 252 252 201
6.546222e+00 1.516553e+01 -5.157193e+01 157 147 80
-1.392273e+01 1.698624e+01 -6.239866e+01 152 142 60
-8.463414e+01 2.735599e+01 -9.334544e+01 195 129 105
-4.641271e+01 3.000056e+01 -1.019518e+02 134 107 90
-4.641271e+01 3.000056e+01 -1.019518e+02 134 107 90
-5.415983e+01 2.680908e+01 -8.878764e+01 244 227 186
-4.765293e+01 2.996140e+01 -9.928612e+01 126 122 127
-5.394002e+01 2.771982e+01 -8.965224e+01 222 202 165
-4.920741e+01 3.162857e+01 -9.587003e+01 245 222 187
-4.654790e+01 3.306339e+01 -1.006563e+02 255 235 214
-4.151250e+01 3.365373e+01 -1.026514e+02 215 207 194
-5.837454e+01 2.211253e+01 -6.020736e+01 166 156 109
-4.662231e+01 3.376404e+01 -1.006364e+02 255 238 208
-4.780081e+01 3.399825e+01 -9.857023e+01 99 98 92
-8.549770e+01 3.363605e+01 -9.220820e+01 203 140 115
-9.693603e+01 3.597200e+01 -9.851638e+01 250 186 166
-4.539762e+01 3.762294e+01 -1.021865e+02 157 137 111
-6.116946e+01 3.080506e+01 -7.827711e+01 251 191 164
-1.490442e+01 2.306443e+00 3.552744e-01 173 187 148
-1.598706e+01 2.687877e+00 -5.085993e+00 212 223 187
-4.701236e+01 3.158107e+01 -9.998935e+01 212 200 168
-4.682547e+01 2.931655e+01 -1.008301e+02 250 231 209
-5.128763e+01 2.737317e+01 -9.369845e+01 124 117 93
-2.041379e+01 1.957620e+01 -6.729017e+01 253 247 231
-2.017487e+01 1.899524e+01 -6.724577e+01 191 186 151
-2.017487e+01 1.899524e+01 -6.724577e+01 191 186 151
-2.010284e+01 2.324324e+01 -6.653983e+01 255 253 241
1.164656e+01 9.241622e+00 -4.132219e+01 157 161 96
-4.547484e+01 1.669735e+01 -7.253355e+01 254 225 168
-4.588594e+01 3.386455e+01 -1.015057e+02 239 223 196
-5.045006e+01 3.513035e+01 -1.119397e+02 132 122 103
-5.760574e+01 2.192232e+01 -8.311181e+01 120 109 88
-4.634592e+01 2.859324e+01 -1.019826e+02 255 235 214
-5.427216e+01 2.711300e+01 -8.796226e+01 233 220 176
-2.558331e+01 1.125177e+01 -5.908143e+01 252 210 153
-1.990702e+01 2.103148e+01 -6.689446e+01 254 243 221
-2.023189e+01 1.970166e+01 -6.714815e+01 194 188 164
-2.049553e+01 2.061991e+01 -6.704607e+01 239 230 206
-4.283269e+00 2.637008e+01 -8.241066e+01 108 105 99
-9.561339e+00 -2.958169e+00 3.456015e+00 201 173 144
-1.332785e+01 1.116336e+00 2.255898e+00 149 159 166
-1.338145e+01 1.169238e+00 2.252980e+00 155 158 167
-1.442155e+01 2.694816e+00 1.298919e+00 69 83 97
-4.286906e+00 2.602531e+01 -8.273467e+01 126 125 104
-9.458371e+00 -4.745844e+00 3.236361e+00 165 156 150
-9.066439e+00 -4.602214e+00 3.238189e+00 195 170 151
-8.963867e+00 -4.574292e-01 1.784469e+00 179 188 191
-1.385600e+01 -2.610101e+00 5.894042e+00 55 68 73
-1.436829e+01 6.692132e-01 1.862209e+00 255 254 255
-8.521015e+00 -2.391475e+00 4.450399e+00 67 73 72
-1.331277e+01 1.334683e-01 2.273864e+00 62 70 82
-9.368767e+00 -4.512041e+00 3.501671e+00 22 21 28
-9.108390e+01 2.360097e+01 -9.786361e+01 204 198 163
-7.646023e+01 2.745607e+01 -8.846859e+01 247 188 153
-8.178549e+00 -4.368796e+00 3.834261e+00 42 45 49
-1.366656e+01 2.612157e+00 -6.837638e+00 127 164 178
-9.154977e+01 2.227415e+01 -9.863276e+01 199 196 178
-1.568799e+01 1.720547e+01 -6.323302e+01 138 121 66
-8.532191e+00 -5.335947e+00 3.455597e+00 21 20 25
-1.002062e+01 -3.799467e+00 3.170795e+00 224 223 211
-9.425093e+00 1.228270e+00 -1.792733e-01 104 109 113
-9.084420e+01 2.282162e+01 -9.807823e+01 148 147 128
2.869646e-01 1.593335e+01 -5.511439e+01 193 189 101
-7.754323e+01 2.827118e+01 -8.890699e+01 244 185 155
-9.136984e+01 3.349245e+01 -9.555625e+01 165 109 93
-9.015148e+01 3.382482e+01 -9.447418e+01 155 104 87
-4.750783e+01 3.500186e+01 -9.867581e+01 135 123 108
-8.253901e+00 -4.089034e+00 3.911906e+00 38 46 69
-7.813643e+00 1.323564e+01 -5.526536e+01 238 228 157
-9.081972e+01 2.210344e+01 -9.822207e+01 147 148 135
-1.323238e+01 1.580101e+01 -6.092744e+01 177 185 114
-8.308361e+00 -3.464099e+00 4.080897e+00 46 52 73
-9.155367e+00 -3.476606e+00 3.757462e+00 30 34 43
-7.282296e+00 -2.598181e+00 4.876906e+00 212 227 240
-1.061188e+01 8.576842e-01 1.358894e+00 31 35 44
-7.961263e+00 1.173597e+01 -5.279398e+01 246 237 184
-2.575233e+00 1.220025e+01 -4.978898e+01 238 223 191
-1.909543e+00 1.247492e+01 -4.969484e+01 67 54 27
-1.168804e+01 1.537048e+01 -5.961769e+01 228 226 157
-1.168804e+01 1.537048e+01 -5.961769e+01 228 226 157
-8.424376e+00 1.538610e+01 -5.832558e+01 236 235 161
-1.373097e+01 1.605513e+01 -6.117877e+01 162 152 73
-8.122907e+00 1.653698e+01 -5.988830e+01 165 153 83
-4.892660e+01 2.961920e+01 -9.724140e+01 149 121 102
-4.650952e+01 3.131382e+01 -1.011540e+02 252 227 206
-4.600588e+01 3.347507e+01 -1.017865e+02 240 217 188
-5.884711e+00 -2.402148e+00 5.167329e+00 203 222 242
-3.171391e+00 -3.083127e+00 3.747408e+00 85 82 73
-1.124466e+01 -4.259840e+00 2.291740e+00 132 128 117
-8.404282e+00 2.213823e+00 -3.935729e+00 50 52 48
-3.442412e+00 -3.182884e+00 3.763548e+00 191 201 200
-9.419216e+00 -3.078867e+00 3.702715e+00 14 15 18
-1.632062e+00 -1.555357e+00 1.359634e+00 93 99 103
-1.488073e+00 -1.484537e+00 1.229053e+00 95 100 103
-1.903652e+01 2.788530e+01 -9.069941e+01 186 184 170
-1.903652e+01 2.788530e+01 -9.069941e+01 186 184 170
-2.419634e+00 -1.911857e+00 2.646430e+00 191 200 200
-5.036692e+00 -2.024842e+00 4.841202e+00 177 183 196
-2.419123e+02 5.520536e+01 -2.198251e+02 173 175 177
-4.411488e+00 -3.521338e+00 4.644387e+00 17 25 45
-2.680293e+00 -2.946505e+00 1.902671e+00 123 127 113
-6.104189e+00 -2.402773e+00 5.126694e+00 183 210 239
-5.569672e+00 -1.800316e+00 4.898747e+00 255 254 251
-2.374909e+02 5.766560e+01 -2.156867e+02 241 235 223
-1.107505e+02 3.320541e+01 -1.075702e+02 255 255 255
-9.927300e+00 -4.112244e+00 3.108603e+00 241 240 237
-1.709191e+00 -2.109074e+00 1.480389e+00 233 234 220
-1.969917e+00 -2.143430e+00 2.194029e+00 230 230 212
-1.193384e+01 -2.198264e+00 2.811421e+00 176 196 201
-5.610136e+00 -1.798889e+00 5.160205e+00 255 175 139
-5.532642e+00 -1.732707e+00 4.826407e+00 240 186 176
-6.033077e+00 -1.798403e+00 5.345864e+00 255 255 167
-6.033077e+00 -1.798403e+00 5.345864e+00 255 255 167
-9.684644e+00 1.144192e+00 1.657020e-01 86 106 115
-8.832658e+00 -3.860261e+00 3.728779e+00 27 26 43
-9.100279e+00 -3.397457e+00 3.789915e+00 23 26 46
-9.013835e+00 -3.257142e+00 3.744629e+00 130 146 172
-2.017610e+00 -2.606355e+00 2.137438e+00 112 116 133
-2.042598e+00 -2.264490e+00 2.162657e+00 223 218 209
-1.936738e+00 -1.871076e+00 2.172463e+00 245 246 231
-3.220681e+00 -1.426488e+00 3.351502e+00 37 42 73
-5.109167e+00 -1.421594e+00 5.083663e+00 60 63 99
-1.073458e+01 8.387632e-01 1.236448e+00 111 120 116
-9.141771e+00 -4.672648e+00 3.361228e+00 105 99 108
-9.241297e+00 -4.675946e+00 3.253942e+00 235 235 236
-8.277712e+00 -4.277270e+00 3.814055e+00 128 128 130
-9.078478e+00 -4.008426e+00 3.610526e+00 25 24 35
-1.005608e+01 -3.964499e+00 3.132892e+00 140 135 133
-3.960459e+00 -3.298382e+00 4.143079e+00 179 183 183
-1.556646e+00 -2.376862e+00 1.168533e+00 248 250 246
-1.762430e+00 -2.380887e+00 1.648365e+00 95 112 135
-1.924778e+00 -2.331084e+00 2.000796e+00 105 110 127
-1.631504e+00 -2.210430e+00 1.185004e+00 242 244 233
-1.851573e+00 -1.907596e+00 2.103718e+00 252 255 250
-3.168687e+00 -1.420015e+00 3.128090e+00 137 135 136
-4.257353e+00 9.440584e+00 -4.703457e+01 234 228 203
-4.267975e+00 9.446704e+00 -4.709279e+01 234 228 203
-5.822003e+00 9.794466e+00 -4.808684e+01 162 153 135
-9.223994e+00 1.656279e+00 -1.188657e+00 59 59 64
-2.288991e+01 1.709389e+01 -6.652234e+01 195 192 112
-5.105586e+01 2.785555e+01 -9.411567e+01 176 141 109
-4.730445e+01 3.203624e+01 -9.959137e+01 125 108 96
-4.662082e+01 3.376134e+01 -1.006375e+02 255 238 208
-4.968589e+01 3.217229e+01 -9.499026e+01 247 219 182
-4.519179e+01 3.608742e+01 -1.025204e+02 246 225 198
-4.676513e+00 -1.751248e+00 4.829063e+00 255 255 255
-3.080347e+00 -1.230464e+00 2.616723e+00 200 209 199
-2.823461e+00 -1.078031e+00 2.127446e+00 202 209 202
-2.298597e+00 -7.191391e-01 9.178557e-01 194 202 190
-4.370558e+01 3.407934e+01 -1.023842e+02 253 253 253
-5.898052e+00 -2.096600e+00 5.104428e+00 235 152 117
-6.737796e+00 1.068312e+01 -5.049354e+01 219 220 136
-5.121342e+00 -1.990731e+00 5.106165e+00 206 203 202
-1.333770e+01 1.407216e-01 2.214550e+00 52 59 69
-6.983057e+01 2.765151e+01 -8.437197e+01 135 87 77
-2.032342e+00 -1.858568e+00 2.364155e+00 108 107 113
-2.024172e+00 -1.842678e+00 2.383334e+00 108 107 113
-1.493919e+00 -1.487037e+00 1.137870e+00 106 109 110
-4.823717e+01 2.767468e+01 -9.802354e+01 156 157 148
-4.890878e+01 3.214978e+01 -9.574690e+01 255 252 231
-3.431962e+00 -3.140632e+00 3.777055e+00 217 221 217
-8.258237e+00 -3.533140e+00 4.104773e+00 141 148 151
-1.999021e+00 -8.245269e-01 -1.215267e+01 137 137 140
-4.284033e-01 1.611384e-01 -1.518932e+01 212 203 184
-4.284033e-01 1.611384e-01 -1.518932e+01 212 203 184
1.704822e+00 1.201610e+00 -1.854838e+01 254 255 255
-9.373817e+00 1.065307e+01 -5.103456e+01 241 237 170
-2.512344e+01 1.664825e+01 -6.705087e+01 251 248 185
-4.617066e+01 2.802102e+01 -1.017854e+02 255 255 233
-4.359265e+01 2.672096e+01 -9.553759e+01 255 255 233
-4.494930e+01 2.833074e+01 -1.014594e+02 251 249 233
-8.698145e+01 2.718392e+01 -9.469417e+01 135 91 81
-4.425790e+00 -3.864057e+00 3.709860e+00 24 23 27
-1.886539e+00 -2.377657e+00 1.672435e+00 243 243 237
-3.315773e+00 -2.545024e+00 4.228312e+00 181 123 94
-2.561856e+00 -1.154441e+00 1.855276e+00 184 193 195
-9.370925e+00 9.828816e+00 -5.007140e+01 206 194 168
-1.221940e+01 1.038283e+01 -5.142664e+01 186 180 158
-1.446128e+01 1.516368e+01 -6.040883e+01 183 177 86
-4.797244e+01 2.779448e+01 -9.943581e+01 254 254 252
-4.393084e+01 2.908761e+01 -1.037245e+02 255 255 255
-6.947790e+01 2.657403e+01 -8.436680e+01 123 74 64
-6.947790e+01 2.657403e+01 -8.436680e+01 123 74 64
-7.044105e+01 2.686942e+01 -8.497144e+01 255 194 155
-4.515819e+01 3.523547e+01 -1.023849e+02 252 229 202
-6.563659e+01 2.994713e+01 -8.228752e+01 252 189 164
-4.449800e+00 -3.971481e+00 3.659493e+00 77 82 76
-4.444498e+00 -3.523087e+00 4.661646e+00 18 21 47
-1.970847e+00 -2.667751e+00 2.101771e+00 252 253 252
-1.791629e+00 -2.546782e+00 1.623949e+00 253 253 254
-1.953096e+00 -2.517876e+00 1.921183e+00 161 173 183
-1.985308e+00 -2.395983e+00 2.086439e+00 227 228 228
-1.983979e+00 -2.389993e+00 2.089778e+00 227 228 228
-1.575476e+00 -2.057169e+00 1.201375e+00 120 127 165
-1.981559e+00 -2.147547e+00 2.129419e+00 251 251 243
-1.950208e+00 -1.893872e+00 2.209970e+00 255 253 253
-3.302168e+00 -1.318292e+00 3.526575e+00 28 33 67
-1.542236e+00 -3.954611e-01 -7.485239e-01 255 255 253
-9.119941e+00 1.014283e+01 -5.010781e+01 175 171 155
-4.726846e+00 1.193005e+01 -5.205690e+01 236 243 144
-2.041497e+01 1.510532e+01 -6.357205e+01 221 210 134
-2.041497e+01 1.510532e+01 -6.357205e+01 221 210 134
-2.556941e+01 1.531351e+01 -6.469495e+01 248 238 173
-2.874993e+01 1.613565e+01 -6.500991e+01 231 241 138
-2.570166e+01 1.688967e+01 -6.740060e+01 185 161 115
-2.522889e+01 1.796772e+01 -6.869180e+01 254 246 200
-9.242331e+00 1.735334e+01 -6.208448e+01 212 194 120
-1.526444e+01 1.763639e+01 -6.429620e+01 160 135 62
-1.954470e+01 1.882451e+01 -6.716485e+01 218 210 164
-4.659920e+01 2.709178e+01 -1.005775e+02 247 235 189
-1.993264e+01 2.564136e+01 -9.194420e+01 209 204 181
-4.615258e+01 2.727432e+01 -1.009225e+02 138 120 106
-8.774570e+01 2.666056e+01 -9.515994e+01 246 179 150
-2.453183e+01 2.838471e+01 -9.433827e+01 198 195 179
-3.708746e+01 3.248565e+01 -9.971585e+01 216 209 194
-3.708746e+01 3.248565e+01 -9.971585e+01 216 209 194
-4.546094e+01 3.493904e+01 -1.019477e+02 153 121 107
-5.813681e+01 2.372213e+01 -5.970383e+01 255 250 221
-8.726925e+00 -3.744284e+00 3.901523e+00 162 169 174
-1.651251e+01 -4.185839e+00 -2.103660e+00 143 140 105
-8.353410e+00 -3.437448e+00 4.067560e+00 37 37 50
-1.642285e+00 -2.231318e+00 1.303109e+00 246 247 243
-2.059768e+00 -1.976482e+00 2.457545e+00 254 255 250
-2.975874e+00 -1.223426e+00 2.375385e+00 30 29 39
-5.971344e+00 9.800090e+00 -4.813602e+01 182 172 149
-9.311995e+00 1.283051e+01 -5.528560e+01 253 245 176
-1.810103e+01 1.340625e+01 -5.983281e+01 255 249 175
-3.923360e+00 1.286636e+01 -5.258092e+01 202 201 122
-2.732892e+01 1.477568e+01 -6.480781e+01 232 209 153
-4.216135e+01 1.628958e+01 -7.277212e+01 244 239 227
-2.881567e+01 1.511218e+01 -6.547463e+01 64 57 36
-2.865596e+01 1.503562e+01 -6.500711e+01 64 57 36
-2.646975e+01 1.546483e+01 -6.585634e+01 255 245 196
-2.719215e+01 1.598359e+01 -6.511290e+01 239 248 176
-2.698533e+01 1.635028e+01 -6.511362e+01 223 243 118
-3.893102e+01 1.907419e+01 -7.408885e+01 177 187 117
-2.666956e+01 1.804086e+01 -6.722545e+01 245 255 191
-1.136196e+01 1.743052e+01 -6.253118e+01 250 242 168
-1.949637e+01 1.842809e+01 -6.659246e+01 248 243 178
-8.578854e+01 2.679902e+01 -9.393086e+01 228 162 140
-2.058550e+01 2.093854e+01 -6.706649e+01 252 250 231
-5.809863e+01 2.145771e+01 -6.027229e+01 255 252 220
-4.555242e+01 3.354496e+01 -1.023157e+02 254 230 202
-4.555242e+01 3.354496e+01 -1.023157e+02 254 230 202
-6.866467e+01 2.871486e+01 -8.357077e+01 255 201 151
-7.071317e+01 3.019060e+01 -8.434642e+01 150 92 72
-2.035936e+00 -2.630496e+00 2.167290e+00 122 124 142
-2.071925e+00 -2.553592e+00 2.218914e+00 216 232 229
-1.215754e+01 -3.360503e+00 2.399557e+00 78 83 87
-1.917865e+00 -2.321444e+00 1.931216e+00 116 119 139
-2.102431e+00 -2.145900e+00 2.515904e+00 244 196 195
-2.101998e+00 -2.147223e+00 2.520844e+00 244 196 195
-2.134210e+00 -7.582505e-01 -1.209557e+01 235 235 232
-1.279701e+01 1.012006e+01 -5.186182e+01 239 229 196
-1.367894e+01 1.016736e+01 -5.225371e+01 242 232 193
-1.735428e+01 1.050687e+01 -5.434330e+01 240 235 205
-9.155110e+00 1.697336e+00 -1.239212e+00 62 67 77
-1.604713e+01 1.168360e+01 -5.562735e+01 197 212 117
-1.876438e+01 1.323093e+01 -5.973218e+01 255 255 197
-2.575842e+01 1.373929e+01 -6.290459e+01 255 251 210
-2.846182e+00 1.224671e+01 -4.985389e+01 74 58 32
-9.390631e+00 1.319536e+01 -5.585903e+01 209 203 140
-9.390631e+00 1.319536e+01 -5.585903e+01 209 203 140
-8.547650e-01 1.240502e+01 -4.949984e+01 215 217 147
-1.739076e+00 1.230556e+01 -4.906144e+01 221 220 171
-5.176953e+00 1.328150e+01 -5.409157e+01 182 182 111
-2.758378e+01 1.458805e+01 -6.454625e+01 255 221 179
-2.951548e+01 1.479996e+01 -6.506027e+01 60 62 20
-2.948789e+01 1.478938e+01 -6.499381e+01 60 62 20
-7.384590e-02 1.300979e+01 -5.080940e+01 255 255 197
-2.398986e+01 1.588467e+01 -6.562576e+01 254 250 183
-2.399803e+01 1.588830e+01 -6.565064e+01 254 250 183
-2.971549e+01 1.561983e+01 -6.513672e+01 220 239 149
-4.243628e+01 1.741326e+01 -7.397289e+01 136 181 203
-1.392972e+01 1.564855e+01 -6.118445e+01 165 154 68
-2.688491e+01 1.680274e+01 -6.573861e+01 224 240 139
-1.604950e+01 1.649547e+01 -6.279879e+01 200 179 122
-1.604950e+01 1.649547e+01 -6.279879e+01 200 179 122
-1.146944e+01 1.643260e+01 -6.116414e+01 255 242 181
-2.899355e+01 1.739353e+01 -6.718001e+01 217 236 149
-2.671620e+01 1.740712e+01 -6.654042e+01 231 248 161
-2.908823e+01 1.758689e+01 -6.717275e+01 217 244 131
-2.808776e+01 1.763632e+01 -6.657785e+01 231 239 159
-2.931203e+01 1.888879e+01 -6.860646e+01 255 255 178
-4.730381e+01 2.711872e+01 -1.002856e+02 250 239 195
-4.476778e+01 2.898561e+01 -1.041187e+02 255 244 202
-6.893174e+01 2.715341e+01 -8.404385e+01 252 183 155
-4.497184e+01 3.239557e+01 -1.033954e+02 255 247 218
-5.421052e+01 2.875954e+01 -8.722685e+01 255 239 200
-7.104299e+01 2.839548e+01 -8.486701e+01 178 109 78
-7.054022e+01 2.838539e+01 -8.458917e+01 251 186 154
-5.061999e+01 3.111695e+01 -9.361038e+01 146 123 72
-4.535110e+01 3.389885e+01 -1.024451e+02 143 109 92
-9.235192e+01 3.397632e+01 -9.645674e+01 254 198 165
-4.250805e+00 -3.456502e+00 4.298153e+00 18 21 38
-4.165695e+00 -3.244191e+00 4.337458e+00 15 15 18
-2.068217e+00 -2.748141e+00 2.278865e+00 253 253 240
-1.615333e+00 -2.368229e+00 1.248632e+00 115 115 125
-1.716037e+00 -2.355985e+00 1.446726e+00 243 248 243
-1.834080e+00 -2.266352e+00 1.835406e+00 132 132 141
-2.007256e+00 -2.208531e+00 2.189081e+00 121 115 141
-9.107052e+00 -2.880967e+00 3.766732e+00 162 154 133
-5.655504e+00 -2.128938e+00 5.086580e+00 255 250 174
-5.688121e-01 1.459685e-01 -1.495507e+01 248 248 242
-2.553690e+00 -1.067933e+00 2.035609e+00 215 215 215
-4.977413e+00 -1.522286e+00 5.115797e+00 157 152 156
-4.977413e+00 -1.522286e+00 5.115797e+00 157 152 156
-2.547777e+00 -9.996111e-01 2.116731e+00 245 245 246
-2.407612e+00 -8.315765e-01 1.764717e+00 193 192 188
-1.771731e+00 -3.132608e-01 1.515373e-01 255 255 249
-1.768271e+01 1.574263e-01 7.458361e-01 167 184 209
-2.204735e+00 9.225641e+00 -4.559271e+01 229 221 190
-5.209242e+00 9.508855e+00 -4.740337e+01 229 217 183
-1.037010e+01 9.816796e+00 -5.036949e+01 243 235 201
-5.761729e+00 9.643980e+00 -4.793469e+01 237 224 196
-1.441740e+01 1.022426e+01 -5.270919e+01 240 227 188
-1.521194e+01 1.031339e+01 -5.316199e+01 244 230 197
-1.376968e+01 1.062653e+01 -5.242798e+01 205 192 163
-1.807642e+01 1.105411e+01 -5.487293e+01 188 178 152
-1.340047e+00 1.078228e+01 -4.864688e+01 230 207 164
-3.716642e+00 1.089180e+01 -4.986801e+01 147 128 60
-9.403196e+00 1.550171e+00 -7.884946e-01 57 74 84
-2.380313e+01 1.199326e+01 -5.905637e+01 200 193 123
-2.380313e+01 1.199326e+01 -5.905637e+01 200 193 123
-2.614412e+00 1.188886e+01 -4.926415e+01 101 88 44
-2.076674e+01 1.354823e+01 -6.092752e+01 255 245 176
-2.791105e+01 1.446835e+01 -6.477938e+01 246 229 188
-8.773236e+00 1.354982e+01 -5.613242e+01 242 239 160
-4.037566e+01 1.607798e+01 -7.259540e+01 223 238 239
-4.500646e+01 1.610402e+01 -7.249954e+01 205 239 230
-2.943861e+01 1.494800e+01 -6.492375e+01 228 242 163
-4.529173e+01 1.620752e+01 -7.245911e+01 235 239 225
-1.491342e+00 1.290921e+01 -4.974956e+01 91 82 56
-2.973677e+01 1.515134e+01 -6.454947e+01 196 213 137
-1.466220e+01 1.490265e+01 -6.034116e+01 172 166 87
-1.466013e+01 1.489146e+01 -6.033820e+01 172 166 87
-5.085956e-01 1.396626e+01 -5.253847e+01 234 235 146
-4.512983e+01 1.708760e+01 -7.323876e+01 246 242 232
-2.995713e+01 1.569046e+01 -6.525070e+01 36 44 0
-2.378748e+01 1.595213e+01 -6.553338e+01 255 250 193
-2.464326e+01 1.617632e+01 -6.629326e+01 201 183 116
-2.938837e+01 1.576568e+01 -6.504361e+01 239 252 159
-2.941668e+01 1.577619e+01 -6.510134e+01 239 252 159
-2.452694e+01 1.626507e+01 -6.642187e+01 193 186 96
-2.993699e+01 1.587465e+01 -6.524224e+01 223 247 143
-8.452062e+00 1.543325e+01 -5.853596e+01 246 242 165
-8.434151e+00 1.541294e+01 -5.844394e+01 246 242 165
-1.543606e+01 1.589222e+01 -6.168758e+01 254 241 180
-2.681380e+01 1.643494e+01 -6.559796e+01 217 238 143
-2.859853e+01 1.642213e+01 -6.532907e+01 117 125 56
-1.676463e+01 1.622733e+01 -6.269875e+01 255 252 196
-1.824273e-01 1.475124e+01 -5.318373e+01 234 221 150
-2.650244e+01 1.705914e+01 -6.695498e+01 124 130 64
-4.327034e+01 1.850590e+01 -7.416318e+01 190 231 235
-1.553282e+01 1.662906e+01 -6.272900e+01 143 125 55
-8.555576e-01 1.536018e+01 -5.459610e+01 204 199 116
-8.555576e-01 1.536018e+01 -5.459610e+01 204 199 116
-3.969249e+01 1.891473e+01 -7.411174e+01 249 254 187
-2.149980e+01 1.765096e+01 -6.646947e+01 209 197 117
-2.688053e+01 1.787636e+01 -6.703556e+01 242 255 149
-2.626748e+01 1.802913e+01 -6.727043e+01 239 255 138
-3.845080e+01 1.943102e+01 -7.441962e+01 237 242 176
-3.068350e+01 1.834596e+01 -6.829239e+01 97 95 49
-2.011334e+01 1.820614e+01 -6.651784e+01 253 254 170
-2.704031e+01 1.813713e+01 -6.685876e+01 237 251 166
-7.656371e-01 1.658237e+01 -5.659923e+01 249 251 159
-1.788377e+01 3.042186e+00 -4.361536e-02 136 177 205
-4.422919e+01 2.199169e+01 -8.076847e+01 245 225 172
-4.635885e+01 2.748443e+01 -1.019338e+02 127 110 87
-4.919987e+01 2.710419e+01 -9.673817e+01 253 240 200
-4.475542e+01 2.934594e+01 -1.046322e+02 137 126 106
-4.476524e+01 2.991892e+01 -1.044402e+02 141 121 109
-4.932424e+01 2.808557e+01 -9.647021e+01 255 242 198
-7.418950e+01 2.677349e+01 -8.715954e+01 252 191 167
-5.444773e+01 2.690829e+01 -8.762185e+01 255 245 203
-4.921121e+01 3.039642e+01 -9.688282e+01 164 135 114
-5.453736e+01 2.816373e+01 -8.728057e+01 254 231 194
-5.130440e+01 3.014318e+01 -9.273224e+01 129 114 113
-9.387540e+01 3.238888e+01 -9.748432e+01 255 201 165
-5.932390e+01 2.218675e+01 -6.080617e+01 222 212 158
-5.953829e+01 2.220134e+01 -6.068278e+01 121 109 56
-5.444780e+01 2.972079e+01 -8.648023e+01 255 242 212
-5.179783e+01 3.155889e+01 -9.157885e+01 129 123 139
-5.179783e+01 3.155889e+01 -9.157885e+01 129 123 139
-4.773624e+01 3.395861e+01 -9.842276e+01 119 114 101
1.574555e-01 2.922644e-01 -1.545113e+01 247 247 234
-3.356006e+00 8.982584e+00 -4.624021e+01 225 218 190
-5.198485e+01 3.606065e+01 -1.021573e+02 117 105 87
-5.198485e+01 3.606065e+01 -1.021573e+02 117 105 87
-1.947616e+01 1.915328e+01 -6.708870e+01 234 227 213
-2.212087e+01 -2.878801e+00 -2.240352e+00 193 203 205
-5.969655e+01 2.148593e+01 -8.076908e+01 255 255 254
-5.870764e+01 2.010948e+01 -8.046192e+01 248 249 228
-5.745201e+01 1.597955e+01 -7.471681e+01 76 75 49
-5.831745e+01 2.139143e+01 -8.117670e+01 117 99 99
-5.881826e+01 2.155941e+01 -8.114810e+01 219 212 175
-5.827735e+01 1.610027e+01 -7.551189e+01 67 69 26
-5.903782e+01 1.965049e+01 -7.943451e+01 254 249 225
-5.902330e+01 2.006106e+01 -7.928627e+01 251 241 206
-6.482121e+01 2.179097e+01 -8.289983e+01 171 165 120
-6.482121e+01 2.179097e+01 -8.289983e+01 171 165 120
-5.126103e+01 2.733404e+01 -9.366583e+01 155 149 129
-4.879694e+01 3.092806e+01 -9.750140e+01 134 123 115
-1.487406e+01 2.309675e+00 5.230709e-01 137 148 109
-9.105911e+00 -4.841286e+00 3.375033e+00 158 151 149
-7.935840e+00 -3.002450e+00 4.484224e+00 117 112 101
-1.291877e+01 5.758515e-01 2.525362e+00 183 198 214
-7.667713e+01 2.292220e+01 -8.974700e+01 72 64 62
-7.961019e+01 2.261907e+01 -9.108937e+01 90 91 79
-9.418100e+01 2.395764e+01 -1.002743e+02 128 124 108
-2.229445e+01 -2.450492e+00 -2.428365e+00 27 26 29
-2.339952e+01 -2.262612e+00 -2.677179e+00 193 194 198
-9.272478e+01 2.092310e+01 -9.968300e+01 229 225 207
-2.221263e+01 -2.662152e+00 -2.358986e+00 28 30 43
-9.413755e+01 1.938864e+01 -9.896750e+01 156 153 139
-2.380732e+01 -3.062860e+00 -3.415309e+00 165 170 164
-5.801890e+01 1.426004e+01 -6.278862e+01 246 226 190
-9.254481e+01 2.397420e+01 -9.866947e+01 125 118 100
-9.254481e+01 2.397420e+01 -9.866947e+01 125 118 100
-4.867676e+01 3.147845e+01 -9.780363e+01 239 239 239
-2.409720e+01 -1.254184e+00 -1.882574e+00 156 148 143
-1.018252e+01 7.975452e-01 7.944370e-01 64 68 94
-9.408028e+01 2.125157e+01 -1.004366e+02 236 236 215
-8.352906e+00 -3.580126e+00 4.195564e+00 158 167 175
-8.334187e+00 -4.428705e+00 3.716200e+00 111 112 113
-2.351254e+01 -3.510989e+00 -3.022412e+00 133 133 136
-2.356870e+01 -3.232084e+00 -3.072130e+00 238 236 231
-2.387235e+01 -2.730361e+00 -3.052618e+00 245 243 248
-2.393322e+01 -2.323447e+00 -2.969796e+00 228 224 221
-2.393322e+01 -2.323447e+00 -2.969796e+00 228 224 221
-2.351609e+01 -2.038167e+00 -2.694215e+00 219 224 222
-8.158840e+01 2.412018e+01 -9.224412e+01 227 168 133
-7.942596e+01 2.869188e+01 -8.988169e+01 232 170 142
-9.080418e+01 2.282333e+01 -9.801639e+01 155 153 138
-1.751616e+01 -2.881853e+00 5.107835e-02 55 58 59
-9.258945e+00 9.167946e-01 8.507667e-01 187 195 195
-9.841856e+00 1.266796e+00 -1.272606e-01 61 72 85
-5.806180e+01 1.854091e+01 -6.158763e+01 254 241 199
-5.820692e+01 2.131038e+01 -6.032083e+01 249 234 191
-2.430398e+02 5.414338e+01 -2.202171e+02 254 254 252
-2.423205e+02 5.558106e+01 -2.190537e+02 253 253 248
-4.725943e+01 3.029764e+01 -9.996701e+01 145 127 121
-4.475179e+01 2.997746e+01 -1.035642e+02 255 249 223
-4.588390e+01 3.172666e+01 -1.009676e+02 250 221 189
-4.840264e+01 2.718704e+01 -9.887410e+01 249 243 218
-2.396002e+02 5.698136e+01 -2.170371e+02 187 186 186
-2.396002e+02 5.698136e+01 -2.170371e+02 187 186 186
-2.405781e+02 6.476548e+01 -2.154521e+02 205 202 199
-2.716364e+00 -2.674809e+00 2.524286e+00 107 115 101
-1.688035e+01 1.028479e+01 -5.422049e+01 199 190 164
-2.757106e+01 1.742339e+01 -6.666383e+01 232 239 162
-1.835267e+01 1.803748e+01 -6.560623e+01 216 207 132
-2.463560e+02 5.449232e+01 -2.216000e+02 253 251 242
-4.848962e+01 2.702411e+01 -9.835939e+01 124 111 101
-4.283971e+01 2.748431e+01 -9.297584e+01 145 119 105
-4.847905e+01 2.948476e+01 -9.826423e+01 254 254 245
-5.471036e+01 2.696331e+01 -8.721263e+01 255 252 218
-5.061261e+01 3.068441e+01 -9.420110e+01 251 219 175
-1.397574e+01 -7.420923e+00 1.053817e+01 150 154 153
-2.726003e+00 -2.139603e+00 3.247099e+00 240 242 241
-4.172775e+01 2.054396e+01 -7.897163e+01 154 159 90
-3.598020e+01 1.700829e+01 -7.208087e+01 240 239 161
-3.598020e+01 1.700829e+01 -7.208087e+01 240 239 161
-3.130512e+00 -2.950976e+00 2.709339e+00 29 29 29
-5.835809e+00 -2.406080e+00 5.236554e+00 202 227 247
-3.253550e+00 -1.858172e+00 3.637140e+00 191 211 224
-3.160876e+00 -1.341713e+00 3.288238e+00 151 162 173
-3.243186e+00 -1.341322e+00 3.172619e+00 151 162 173
-2.750106e+00 -1.078369e+00 2.230414e+00 205 210 196
-4.373007e+00 -2.911979e+00 5.069467e+00 192 126 50
-1.438965e+00 -1.725346e+00 1.058503e+00 116 119 126
-1.482095e+00 -1.693036e+00 1.341581e+00 242 242 243
-2.595389e+01 1.534189e+01 -6.574406e+01 237 229 159
-4.232546e+01 1.583209e+01 -7.192653e+01 185 174 125
-3.923072e+01 1.719130e+01 -7.393573e+01 249 238 185
-1.576233e+01 6.328510e-01 9.105990e+00 255 253 254
-1.576233e+01 6.328510e-01 9.105990e+00 255 253 254
-3.746404e+01 1.827820e+01 -7.478208e+01 254 242 194
-4.923269e+01 2.313205e+01 -8.403754e+01 255 250 210
-6.985070e+01 2.766357e+01 -8.439241e+01 136 92 81
-5.720539e+00 -7.072977e+00 1.010514e+01 183 185 177
-1.839112e+00 -4.855682e-01 2.189357e-01 241 242 237
-4.633026e+01 2.669949e+01 -9.882726e+01 252 242 194
-4.347125e+01 2.951814e+01 -1.049587e+02 249 248 232
-2.035084e+00 -2.709596e+00 2.293595e+00 252 252 249
-1.723365e+00 -2.487021e+00 1.503562e+00 243 243 239
-1.940887e+00 -2.520680e+00 1.931017e+00 154 163 176
-1.672947e+00 -2.359858e+00 1.309669e+00 160 160 168
-2.157822e+00 -2.496600e+00 2.421995e+00 255 253 248
-1.717845e+00 -2.120929e+00 1.462765e+00 255 255 255
-3.430433e+00 -1.325796e+00 -1.025644e+01 234 231 227
-2.258603e+00 -7.933700e-01 -1.195339e+01 253 254 249
-2.258603e+00 -7.933700e-01 -1.195339e+01 253 254 249
-1.302880e+00 -1.643529e+00 -7.376760e-01 127 128 129
-1.679705e+00 -1.717617e+00 1.590412e+00 252 252 254
-2.565868e+00 -1.157930e+00 1.873747e+00 200 208 214
-3.105526e+01 1.470019e+01 -6.613196e+01 54 55 42
-3.130768e+01 1.532742e+01 -6.665940e+01 188 208 110
-7.558645e+01 2.723727e+01 -8.807569e+01 132 88 82
-7.558645e+01 2.723727e+01 -8.807569e+01 132 88 82
-7.529291e+01 2.762770e+01 -8.752090e+01 133 85 74
-3.190493e+00 -6.166490e+00 7.181345e+00 133 130 128
-1.768541e+00 -2.391137e+00 1.548441e+00 116 131 156
-2.303811e+00 -2.408094e+00 2.627596e+00 67 77 83
-2.053038e+00 -2.325742e+00 2.265322e+00 253 251 253
-1.978381e+00 -2.145046e+00 2.126675e+00 253 253 253
-3.247891e+00 -1.725274e+00 3.388088e+00 255 255 251
-2.989450e+00 -1.224721e+00 2.362761e+00 26 26 37
-2.376798e+00 -7.752260e-01 1.685860e+00 27 32 45
-2.233747e+00 -5.535472e-01 7.430487e-01 26 29 40
-2.075283e+00 -4.994691e-01 6.760862e-01 30 33 42
-1.331564e+01 1.019603e+01 -5.198502e+01 237 228 199
-4.200414e+01 1.435154e+01 -7.000576e+01 251 243 217
-4.497546e+01 1.561991e+01 -7.210301e+01 253 255 194
-4.491382e+01 1.560774e+01 -7.201524e+01 253 255 194
-4.469163e+01 1.588661e+01 -7.282530e+01 167 135 97
-2.040865e+01 1.655168e+01 -6.476353e+01 254 247 202
-3.081217e+01 1.804918e+01 -6.871297e+01 215 208 151
-4.117836e+01 2.862643e+01 -1.023651e+02 237 232 201
-4.781570e+01 2.932552e+01 -1.006242e+02 253 244 218
-9.970789e+01 3.117971e+01 -1.013341e+02 229 163 135
-7.605355e+01 2.838354e+01 -8.782648e+01 236 188 156
2.878799e+00 -2.715680e+00 -4.154531e+00 243 247 242
-1.540483e+00 -2.326829e+00 1.087005e+00 129 129 140
-1.851833e+00 -1.830335e+00 2.020689e+00 254 254 252
-3.199324e-01 -1.153716e+00 5.412349e+00 26 28 44
-3.199324e-01 -1.153716e+00 5.412349e+00 26 28 44
-1.200331e+00 -8.868079e-01 2.914579e+00 27 28 32
-1.643185e+01 1.016387e+01 -5.384604e+01 252 254 251
-1.779990e+01 1.306410e+01 -5.925028e+01 208 208 115
-4.066617e+01 1.392800e+01 -6.888887e+01 229 218 149
-4.422478e+01 1.535833e+01 -7.186976e+01 255 254 225
-4.339495e+01 1.554621e+01 -7.219841e+01 252 249 201
-4.636513e+01 1.653380e+01 -7.268285e+01 250 232 163
-3.925869e+01 1.853270e+01 -7.424637e+01 249 248 185
-2.676827e+01 1.742291e+01 -6.667410e+01 231 248 157
-5.100547e+01 1.951504e+01 -7.812227e+01 255 253 194
-2.621838e+01 1.889229e+01 -6.863899e+01 120 127 63
-4.846965e+01 2.753188e+01 -9.808769e+01 111 102 99
-5.006077e+01 2.743655e+01 -9.584153e+01 255 238 178
-4.901402e+01 3.055006e+01 -9.747020e+01 255 253 226
-7.755161e+00 -4.616569e+00 4.108485e+00 117 114 104
-2.160936e+00 -2.634048e+00 2.420107e+00 238 243 236
-1.823876e+00 -2.487049e+00 1.698037e+00 126 131 145
-1.595023e+00 -2.335218e+00 1.181859e+00 131 136 144
-2.110686e+00 -2.418053e+00 2.351643e+00 131 127 150
-2.102354e+00 -2.416864e+00 2.358350e+00 131 127 150
-2.731517e+00 -1.827657e+00 3.232542e-01 133 132 147
-1.904953e+00 -1.881566e+00 2.093294e+00 133 132 147
-1.710585e+00 -1.715382e+00 1.644462e+00 255 255 251
-3.276703e+00 -1.431753e+00 3.300294e+00 23 35 75
-2.433389e+00 -9.251632e-01 1.855582e+00 200 201 191
-2.339688e+00 -8.820958e-01 1.718656e+00 201 202 187
-2.537752e+00 -9.183656e-01 2.059236e+00 206 206 200
-1.641914e+00 5.073283e-01 -2.045994e+00 250 249 239
-1.009071e+01 4.447028e+00 -3.207230e+01 253 253 234
-1.009071e+01 4.447028e+00 -3.207230e+01 253 253 234
-1.881484e+01 1.066284e+01 -5.517077e+01 243 235 206
-3.005710e+01 1.016108e+01 -5.596834e+01 162 157 84
-1.812629e+01 1.341471e+01 -5.990447e+01 255 254 182
-4.334785e+01 1.496916e+01 -7.125784e+01 255 240 190
-2.759713e+01 1.458899e+01 -6.457801e+01 253 222 177
-4.544448e+01 1.521163e+01 -7.164796e+01 255 255 229
-4.285754e+01 1.550856e+01 -7.228611e+01 254 236 211
-4.081358e+01 1.575966e+01 -7.218157e+01 187 160 113
-3.133756e+01 1.541345e+01 -6.620453e+01 224 217 129
-4.006170e+01 1.666277e+01 -7.275395e+01 241 219 159
-4.136205e+01 1.665543e+01 -7.274314e+01 255 252 202
-4.520304e+01 1.651766e+01 -7.255220e+01 191 185 121
-4.069065e+01 1.739247e+01 -7.290916e+01 211 223 143
-3.828057e+01 1.795026e+01 -7.425164e+01 255 245 188
-2.602872e+01 1.721064e+01 -6.760227e+01 254 236 156
-2.526340e+01 1.766221e+01 -6.820823e+01 255 255 203
-4.107701e+01 1.845339e+01 -7.383910e+01 255 251 186
-5.017943e+01 1.986451e+01 -7.856675e+01 225 222 143
-3.867125e+01 2.002583e+01 -7.720380e+01 255 239 180
-2.933798e+01 1.838415e+01 -6.804666e+01 251 253 159
-2.933798e+01 1.838415e+01 -6.804666e+01 251 253 159
-4.624087e+01 2.036253e+01 -7.840134e+01 154 122 85
-2.600137e+01 1.881427e+01 -6.873595e+01 226 243 160
-5.047964e+01 2.099598e+01 -7.998889e+01 218 241 146
-2.836800e+01 1.912226e+01 -6.883346e+01 246 254 141
-5.979572e+01 2.166376e+01 -8.253884e+01 125 117 114
-4.527065e+01 2.922247e+01 -1.034601e+02 247 226 202
-5.021225e+01 2.832021e+01 -9.583735e+01 255 236 173
-7.510184e+01 2.665868e+01 -8.776893e+01 254 198 179
-7.743733e+01 2.824581e+01 -8.877684e+01 255 209 182
-4.907127e+01 3.078111e+01 -9.668506e+01 255 239 202
-9.682481e+01 3.165087e+01 -9.951237e+01 236 166 140
3.653588e+00 -5.672883e+00 6.485728e+00 62 66 56
-2.577011e-01 -2.486489e+00 -5.644398e+00 182 183 174
-3.966686e+00 -3.299910e+00 4.135064e+00 210 211 212
-1.943727e+00 -2.568282e+00 1.945326e+00 125 127 135
-1.905145e+00 -2.538097e+00 1.866687e+00 144 144 146
-1.854553e+00 -2.501300e+00 1.759375e+00 130 137 152
-1.781333e+00 -2.360712e+00 1.597665e+00 125 135 160
-1.695989e+00 -2.328324e+00 1.385155e+00 125 131 148
-1.934065e+00 -2.281201e+00 1.989658e+00 249 255 255
-2.046714e+00 -2.222534e+00 2.282084e+00 128 132 154
-1.721668e+00 -2.019973e+00 1.536091e+00 255 255 250
-1.644431e+00 -1.982763e+00 1.380067e+00 135 135 161
-1.506207e+00 -4.932953e-01 -1.288354e+01 255 254 255
-1.815157e+00 -1.856838e+00 1.876746e+00 254 254 255
-1.510093e+00 -1.731869e+00 1.147821e+00 255 255 255
-1.914586e+00 -1.836503e+00 2.138107e+00 253 254 255
-1.739471e+00 -1.737457e+00 1.764129e+00 254 254 255
7.342114e-01 4.343026e-01 -1.587123e+01 147 143 122
3.407960e+00 -7.106596e-01 -3.386559e-01 168 162 162
-1.088743e+01 -2.468916e+00 3.381339e+00 103 102 97
-2.514078e+00 -9.045112e-01 1.987209e+00 35 32 38
-2.431381e+00 -8.533675e-01 1.832451e+00 38 36 41
-2.426631e+00 -8.531689e-01 1.840087e+00 38 36 41
-1.185918e+01 3.736305e+00 -2.969037e+01 166 160 145
-1.110657e+01 3.967226e+00 -3.069683e+01 240 234 215
-1.656515e+01 1.151648e+01 -5.566826e+01 216 191 135
-9.053297e+00 1.719964e+00 -1.536338e+00 27 34 35
-4.297564e+01 1.320576e+01 -6.912255e+01 255 239 194
-1.943142e+01 1.337433e+01 -6.005939e+01 255 251 194
-2.952659e+01 1.410282e+01 -6.561785e+01 255 249 182
-2.916929e+01 1.457682e+01 -6.528322e+01 93 88 35
-4.326788e+01 1.518458e+01 -7.154243e+01 255 240 183
-4.186319e+01 1.571771e+01 -7.256130e+01 255 254 214
-4.344289e+01 1.595701e+01 -7.247342e+01 222 230 160
-4.448680e+01 1.609324e+01 -7.246191e+01 222 230 147
-4.397452e+01 1.623763e+01 -7.249690e+01 235 243 160
-4.756279e+01 1.606331e+01 -7.135494e+01 254 253 185
-4.059540e+01 1.674472e+01 -7.284176e+01 240 232 151
-4.061224e+01 1.675204e+01 -7.287810e+01 240 232 151
-2.794694e+01 1.556589e+01 -6.458400e+01 253 243 166
-4.340025e+01 1.661834e+01 -7.272322e+01 232 248 186
-2.811317e+01 1.589143e+01 -6.465438e+01 219 245 146
-4.538440e+01 1.696085e+01 -7.295877e+01 167 145 90
-2.781817e+01 1.591951e+01 -6.465524e+01 114 129 54
-2.778133e+01 1.590302e+01 -6.457282e+01 114 129 54
-4.038998e+01 1.726320e+01 -7.317534e+01 243 245 163
-4.038998e+01 1.726320e+01 -7.317534e+01 243 245 163
-4.771028e+01 1.679565e+01 -7.238447e+01 142 136 84
-4.719330e+01 1.694862e+01 -7.239815e+01 238 242 182
-2.660103e+01 1.644715e+01 -6.598524e+01 229 252 152
-4.468603e+01 1.736248e+01 -7.323896e+01 250 254 201
-4.591775e+01 1.723183e+01 -7.289627e+01 247 244 180
-4.152707e+01 1.788745e+01 -7.336067e+01 166 159 87
-2.612449e+01 1.723766e+01 -6.725509e+01 243 251 147
-4.164824e+01 1.792162e+01 -7.318197e+01 255 252 200
-3.972747e+01 1.828149e+01 -7.392326e+01 241 237 180
-4.331383e+01 1.816127e+01 -7.388276e+01 232 243 172
-2.644346e+01 1.761225e+01 -6.724957e+01 237 252 160
-2.620471e+01 1.776477e+01 -6.765889e+01 250 255 168
-4.984294e+01 1.959345e+01 -7.845330e+01 235 241 175
-2.629394e+01 1.805466e+01 -6.806124e+01 105 118 28
-3.045459e+01 1.795981e+01 -6.817990e+01 222 229 146
-4.236980e+01 1.912138e+01 -7.402270e+01 254 246 183
-5.009467e+01 2.056897e+01 -7.961625e+01 226 243 152
-2.836165e+01 1.889798e+01 -6.869741e+01 84 100 17
-4.871523e+01 2.116925e+01 -8.061846e+01 255 253 185
-5.994274e+01 2.230042e+01 -8.446873e+01 251 243 182
-4.567073e+01 2.838854e+01 -1.029017e+02 252 244 196
-5.782262e+01 2.400931e+01 -8.235259e+01 255 250 227
-4.992588e+01 2.811316e+01 -9.619627e+01 254 229 187
-4.489394e+01 3.112151e+01 -1.043148e+02 146 127 115
-4.583122e+01 3.078041e+01 -1.024345e+02 239 225 184
-5.440278e+01 2.699043e+01 -8.828378e+01 255 247 197
-5.468298e+01 2.695271e+01 -8.716799e+01 255 248 212
-4.670664e+01 3.110057e+01 -1.000321e+02 238 222 203
-5.481868e+01 2.868502e+01 -8.761641e+01 255 240 205
-4.882721e+01 3.148585e+01 -9.738580e+01 151 143 147
-1.933203e+00 -2.281502e+00 1.990112e+00 207 209 208
-5.668928e+01 2.274501e+01 -8.465306e+01 254 246 208
1.174059e+01 9.307060e+00 -4.082766e+01 238 231 162
-5.811648e+01 2.145910e+01 -8.151555e+01 121 98 100
-5.853186e+01 2.051878e+01 -6.077156e+01 250 238 204
-1.789991e+01 3.050047e+00 -3.717781e-02 108 142 173
-1.724084e+01 3.927344e+00 -7.017377e+00 191 216 213
-8.711516e+00 -4.473085e+00 3.574081e+00 255 255 253
-7.590126e+00 -2.435624e+00 4.892278e+00 209 227 237
-9.439887e+00 -3.093442e+00 3.651702e+00 25 24 38
-9.505518e+00 -3.966714e+00 3.509369e+00 176 175 177
-2.391335e+01 -2.342368e+00 -2.977445e+00 237 228 222
-2.504863e+01 -1.219132e+00 -3.569720e+00 182 173 157
-1.238959e+01 2.098488e-01 2.903694e+00 184 195 208
-2.342643e+01 -3.232820e+00 -3.110964e+00 152 145 135
-2.324567e+01 -1.770136e+00 -2.395850e+00 122 110 133
-1.093133e+01 7.649500e-01 1.694422e+00 61 71 74
-9.418848e+00 1.485339e+00 -6.169925e-01 57 62 69
-1.699681e+00 -2.212620e+00 1.473323e+00 247 247 241
-2.209007e+01 -2.468023e+00 -2.110675e+00 26 19 21
-2.358015e+01 -2.041022e+00 -2.761675e+00 231 230 229
-8.138549e+00 2.013801e+00 -3.075733e+00 66 65 95
-4.211411e+01 1.717625e+01 -7.419932e+01 141 183 202
-1.006901e+01 -3.788792e+00 3.075488e+00 214 209 197
-8.304081e+00 -3.593511e+00 4.071250e+00 152 157 156
-1.743713e+00 -1.812171e+00 1.795269e+00 254 253 255
-1.428660e+01 2.974174e+00 -6.770020e+00 211 230 233
-1.931626e+02 3.493567e+01 -1.616811e+02 247 238 168
-5.058425e+01 2.020741e+01 -8.076034e+01 137 181 186
-1.351249e+02 2.919786e+01 -1.232315e+02 207 197 166
-2.927457e+01 1.812976e+01 -6.801230e+01 220 245 126
-2.419156e+00 -2.765529e+00 2.553148e+00 23 24 26
-1.678380e+00 -2.055194e+00 -2.486531e-02 26 25 23
-1.964764e+00 -5.582931e-01 6.833998e-01 160 165 170
-1.857711e+00 -2.109021e+00 1.843074e+00 249 247 249
-8.543402e+00 -4.626129e+00 3.520810e+00 74 75 70
-9.183739e+00 -3.091497e+00 3.774506e+00 241 235 229
-1.774888e+00 -1.929686e+00 1.504639e+00 254 255 255
-8.300308e+00 -4.790931e+00 1.509381e+00 82 79 63
-1.774279e+00 -2.272628e+00 1.639325e+00 252 252 251
-2.144272e+00 -2.401265e+00 2.465127e+00 254 254 246
-9.351857e+00 -2.916678e+00 3.861117e+00 37 38 40
-1.006102e+00 -1.063942e+00 -7.713660e-01 190 112 62
-3.162691e+02 4.705246e+01 -2.090302e+02 116 127 157
-3.137634e+02 4.818508e+01 -2.086011e+02 255 255 251
-2.051317e+00 -2.208434e+00 2.418831e+00 253 254 255
-2.162515e+00 -2.230515e+00 2.479868e+00 254 255 249
-3.147138e+02 4.733342e+01 -2.095200e+02 252 255 255
-1.897312e+00 -2.445415e+00 1.820179e+00 253 254 250
-1.611010e+00 -1.735563e+00 1.460769e+00 215 214 213
-2.566586e+01 1.127897e+01 -5.926217e+01 255 242 166
-9.573829e+00 1.474593e+00 -6.910522e-01 50 58 67
-8.708744e+00 2.623933e+00 -5.153844e+00 255 254 238
-8.913915e+00 2.792960e+00 -5.498265e+00 145 140 137
-9.522490e+00 -4.581255e+00 3.197295e+00 169 169 171
-2.979365e+00 -2.897107e+00 3.678696e+00 113 122 114
-2.107293e+00 -2.415999e+00 2.359337e+00 131 127 150
-1.838771e+00 -2.269507e+00 1.794425e+00 135 141 163
-2.134818e+00 -2.300515e+00 2.537299e+00 255 255 245
-8.580207e+00 -3.075999e+00 4.078152e+00 57 56 55
-5.129167e+00 -1.477962e+00 5.092178e+00 210 219 229
-1.973561e+00 -2.526969e+00 2.004404e+00 232 241 245
-1.654559e+00 -2.430884e+00 1.375753e+00 252 254 251
-1.672936e+00 -1.998615e+00 1.500035e+00 139 140 164
-2.278477e+00 -1.907413e+00 2.799628e+00 94 105 116
-2.468915e+00 -1.012114e+00 1.929174e+00 201 205 194
-1.165985e+01 3.868016e+00 -3.024302e+01 172 168 135
-1.640997e+01 1.162197e+00 -3.098398e+00 125 149 156
-8.543757e+00 2.478574e+00 -4.909332e+00 74 76 68
-3.723364e+00 -1.976598e+00 3.803575e+00 138 153 160
-4.726664e+01 3.026431e+01 -1.000539e+02 228 207 178
-4.933910e+01 2.711126e+01 -9.592620e+01 116 101 72
-4.789174e+01 2.703631e+01 -9.946935e+01 242 235 214
-4.791150e+01 2.754019e+01 -9.924248e+01 254 251 237
-4.877095e+01 2.808272e+01 -9.834162e+01 69 61 50
-4.804730e+01 2.837999e+01 -9.900188e+01 245 240 221
-4.694224e+01 3.079732e+01 -1.007644e+02 97 86 66
-4.694224e+01 3.079732e+01 -1.007644e+02 97 86 66
-4.667472e+01 2.876567e+01 -1.009044e+02 208 188 161
-4.822913e+01 2.931923e+01 -9.833305e+01 109 102 96
-4.947521e+01 2.891212e+01 -9.669887e+01 142 124 88
-4.947521e+01 2.891212e+01 -9.669887e+01 142 124 88
-4.993621e+01 2.694080e+01 -9.591661e+01 184 165 114
-4.859319e+01 2.754536e+01 -9.825484e+01 111 108 93
-4.842131e+01 2.767703e+01 -9.864195e+01 224 222 209
-4.752325e+01 2.819323e+01 -1.003005e+02 164 150 115
-3.309516e+00 -1.715807e+00 3.408783e+00 35 36 42
-4.878583e+01 2.762665e+01 -9.805067e+01 177 166 130
-4.958360e+01 2.783123e+01 -9.639865e+01 195 173 131
-4.958360e+01 2.783123e+01 -9.639865e+01 195 173 131
-4.934109e+01 2.809406e+01 -9.684555e+01 131 111 70
-4.956203e+01 2.821235e+01 -9.646765e+01 125 101 70
-4.904989e+01 2.854755e+01 -9.741947e+01 228 195 151
-4.884172e+01 2.892485e+01 -9.773212e+01 213 184 142
-4.775407e+01 2.947662e+01 -9.974090e+01 76 79 74
-4.910766e+01 2.915298e+01 -9.732071e+01 223 188 150
-4.886910e+01 2.948209e+01 -9.760670e+01 222 194 151
-4.776004e+01 3.001400e+01 -9.953231e+01 82 81 78
-4.629453e+01 3.112043e+01 -1.016817e+02 216 187 150
-4.760270e+01 3.056886e+01 -9.956173e+01 217 196 161
-4.934092e+01 2.985295e+01 -9.672763e+01 247 208 169
-4.934092e+01 2.985295e+01 -9.672763e+01 247 208 169
-4.529664e+01 3.195325e+01 -1.033810e+02 198 168 135
-4.714215e+01 3.115807e+01 -1.001908e+02 205 185 144
-1.008200e+01 -3.861097e+00 3.145519e+00 119 111 102
-4.521329e+01 2.960888e+01 -1.040129e+02 222 198 160
-4.525002e+01 2.962736e+01 -1.041195e+02 222 198 160
-4.619605e+01 2.940817e+01 -1.021141e+02 222 192 157
-4.925956e+01 2.833554e+01 -9.698492e+01 190 161 124
-4.945943e+01 2.844069e+01 -9.665274e+01 194 170 127
-4.524132e+01 3.050782e+01 -1.037463e+02 217 174 130
-4.850889e+01 2.919543e+01 -9.842570e+01 212 212 199
-4.951235e+01 2.933036e+01 -9.641150e+01 219 199 156
-9.604391e+00 -2.819164e+00 3.688671e+00 125 126 119
-4.626403e+01 3.000873e+01 -1.020341e+02 237 198 160
-1.103594e+01 -2.694187e+00 3.226346e+00 71 74 70
-4.868014e+01 2.769853e+01 -9.824088e+01 73 70 54
-4.628534e+01 2.916633e+01 -1.017561e+02 191 170 140
-4.883563e+01 2.970879e+01 -9.780977e+01 91 85 66
-2.130008e+00 -1.992419e+00 2.707161e+00 101 101 98
-4.771528e+01 2.709365e+01 -9.972766e+01 117 106 89
-5.009207e+01 2.691214e+01 -9.572741e+01 104 87 37
-4.584874e+01 3.010177e+01 -1.027446e+02 104 88 69
-4.773626e+01 2.975682e+01 -9.956703e+01 85 92 87
-4.789555e+01 2.980923e+01 -9.914652e+01 143 139 126
-5.544977e+01 1.909032e+01 -7.739676e+01 249 246 227
-3.361634e+00 -3.081319e+00 3.392818e+00 19 21 20
-1.403248e+00 -2.151109e+00 7.125346e-01 26 28 27
-1.984888e+00 -5.462780e-01 5.435338e-01 186 192 200
-1.957873e+00 -5.447419e-01 5.573539e-01 186 192 200
-5.447620e+01 1.572733e+01 -7.269688e+01 177 161 103
-1.545096e+00 -1.778493e+00 1.260438e+00 255 255 254
-1.594560e+00 -1.780500e+00 1.203837e+00 255 255 254
-5.900446e+00 -2.118845e+00 5.112228e+00 209 163 151
-7.391298e+01 2.130496e+01 -8.804208e+01 251 249 236
-3.685521e+00 -1.618720e+00 3.401420e+00 235 235 233
-3.834494e+01 1.864477e+01 -7.453629e+01 179 166 115
-6.998294e+01 2.081099e+01 -8.620624e+01 242 240 224
-6.672134e+01 2.182577e+01 -8.410188e+01 168 164 106
-7.273862e+01 2.317987e+01 -8.709684e+01 255 196 162
-7.273862e+01 2.317987e+01 -8.709684e+01 255 196 162
-2.155278e+00 -2.855654e+00 2.195315e+00 51 57 58
-1.195761e+00 -1.869231e+00 -8.752156e-01 153 158 158
-1.654416e+00 -1.587433e+00 1.456977e+00 110 114 117
-1.626714e+00 -1.590010e+00 1.480065e+00 110 114 117
-3.847611e+01 1.946600e+01 -7.676196e+01 201 170 109
-3.972722e+01 2.057892e+01 -7.880922e+01 254 223 167
-7.835618e+01 2.395078e+01 -9.034403e+01 255 201 169
-1.876891e+00 -2.394599e+00 1.786017e+00 253 253 252
-2.335157e+00 -2.517471e+00 2.659145e+00 129 135 125
-1.054235e+00 -1.226526e-01 -1.427867e+01 237 236 231
-4.678879e-01 1.380666e-01 -1.513109e+01 209 204 191
-4.792595e+01 1.441869e+01 -7.042887e+01 255 251 202
-4.585725e+01 1.555609e+01 -7.200237e+01 252 255 235
-3.165477e+01 1.865813e+01 -7.001945e+01 144 151 95
-1.987232e+00 -2.669581e+00 2.078689e+00 253 253 251
-1.568625e+00 -2.412438e+00 1.168371e+00 251 251 253
-2.190603e+00 -2.497445e+00 2.700604e+00 130 132 120
-2.154194e+00 -2.239452e+00 2.521806e+00 255 254 252
-1.294415e+00 -1.203307e+00 -2.355416e+00 112 115 113
-2.513030e+00 -1.034730e+00 1.991185e+00 29 34 50
-3.150358e+00 -1.171952e+00 2.875376e+00 55 55 65
-7.835379e+00 1.670931e+00 -1.817692e+00 181 209 229
-4.866858e+01 1.119293e+01 -6.045544e+01 176 167 138
-4.627167e+01 1.521162e+01 -7.111233e+01 255 232 180
-4.725376e+01 1.537837e+01 -7.156373e+01 145 137 79
-4.750238e+01 1.552034e+01 -7.110234e+01 255 235 168
-7.662238e+01 1.859497e+01 -9.038451e+01 148 148 146
-4.079631e+01 1.887416e+01 -7.463947e+01 134 115 68
-4.079631e+01 1.887416e+01 -7.463947e+01 134 115 68
-7.225520e+01 2.551975e+01 -8.485179e+01 255 197 158
-5.789989e+01 2.102780e+01 -6.079691e+01 239 224 182
-5.853054e+01 2.100447e+01 -6.076285e+01 196 179 126
1.074083e-01 -5.242863e+00 4.363111e+00 235 220 187
-2.120301e+00 -2.694072e+00 2.340041e+00 131 129 130
-2.097651e+00 -2.018603e+00 2.659745e+00 255 254 250
-2.106413e+00 -2.019537e+00 2.642636e+00 255 254 250
-1.023315e+00 -3.410004e-01 -1.358633e+01 161 157 148
-1.487821e+00 -1.629330e+00 1.218499e+00 255 255 255
-4.815499e+01 1.422964e+01 -6.966417e+01 248 236 163
-4.715434e+01 1.458708e+01 -7.034882e+01 254 239 186
-4.000003e+01 1.597167e+01 -7.211563e+01 255 247 194
-5.102704e+01 1.536583e+01 -7.095860e+01 145 143 100
-7.011469e+01 1.788029e+01 -8.683426e+01 185 177 165
-7.275516e+01 1.823029e+01 -8.807951e+01 117 115 114
-7.902687e+01 1.939841e+01 -9.180198e+01 150 153 149
-7.645887e+01 2.225313e+01 -8.934702e+01 114 106 95
-7.645887e+01 2.225313e+01 -8.934702e+01 114 106 95
-5.464388e+01 2.151581e+01 -8.215729e+01 255 255 234
-6.938337e+01 2.748407e+01 -8.476067e+01 255 190 151
-4.029226e+00 -3.008416e+00 2.545090e+00 121 128 126
-3.138492e+00 -2.783326e+00 2.592572e+00 124 131 125
-1.520748e+00 -2.236027e+00 1.029512e+00 254 254 253
-1.932495e+00 -2.212693e+00 2.014333e+00 253 252 248
-1.583978e+00 -1.674901e+00 1.384603e+00 254 255 251
-2.473431e+00 -9.519054e-01 1.948434e+00 208 211 184
-1.741360e+00 -3.394888e-01 1.990575e-01 255 253 255
-1.200108e+01 3.615599e+00 -2.971806e+01 242 238 228
-1.191500e+01 3.597770e+00 -2.956783e+01 242 238 228
-9.429540e+00 1.492993e+00 -6.501555e-01 47 57 63
-5.069967e+01 1.461605e+01 -7.110582e+01 237 221 159
-4.345859e+01 1.556960e+01 -7.230226e+01 255 250 205
-4.345859e+01 1.556960e+01 -7.230226e+01 255 250 205
-7.238973e+01 1.767746e+01 -8.805429e+01 239 235 201
-5.068593e+01 1.564312e+01 -7.085658e+01 114 117 66
-4.394403e+01 1.649340e+01 -7.319071e+01 235 224 162
-7.747539e+01 1.885941e+01 -9.069120e+01 253 253 237
-2.891063e+01 1.621877e+01 -6.536946e+01 222 240 132
-4.250184e+01 1.723069e+01 -7.285002e+01 239 238 175
-4.250184e+01 1.723069e+01 -7.285002e+01 239 238 175
-3.824688e+01 1.795638e+01 -7.418212e+01 255 237 180
-5.111238e+01 1.956502e+01 -7.827782e+01 255 253 183
-7.095626e+01 2.166835e+01 -8.614327e+01 105 99 80
-7.095626e+01 2.166835e+01 -8.614327e+01 105 99 80
-6.287908e+01 2.149755e+01 -8.221059e+01 214 197 153
-6.988439e+01 2.199603e+01 -8.506348e+01 83 74 47
-7.004084e+01 2.205416e+01 -8.530582e+01 83 74 47
-1.024377e+02 2.662645e+01 -1.038543e+02 223 188 158
-7.485578e+01 2.742548e+01 -8.764482e+01 255 204 162
-7.849374e+01 2.834988e+01 -8.941139e+01 210 136 112
-7.747876e+01 2.916344e+01 -8.862292e+01 254 203 167
-1.794747e+00 -2.471047e+00 1.618221e+00 133 133 161
-1.788117e+00 -2.466015e+00 1.618789e+00 133 133 161
-1.712565e+00 -2.327019e+00 1.439634e+00 254 255 250
-3.695868e+00 -2.862790e+00 4.375633e+00 255 189 54
-1.929869e+00 -2.205457e+00 2.016769e+00 254 253 247
-1.929850e+00 -2.205729e+00 2.016663e+00 254 253 247
-2.004606e+00 -2.208097e+00 2.189700e+00 141 137 169
-1.754784e+00 -2.102411e+00 1.613675e+00 255 255 255
-2.072725e+00 -2.117476e+00 2.373526e+00 251 215 217
-1.539822e+00 -1.928322e+00 1.185515e+00 145 148 162
-1.542565e+00 -1.925997e+00 1.189332e+00 145 148 162
-1.439523e+00 -5.243776e-01 -1.292628e+01 112 106 105
-1.727752e+00 -1.786386e+00 1.696863e+00 121 119 141
-1.628151e+00 -1.669876e+00 1.459529e+00 135 133 139
-1.627881e+00 -1.670363e+00 1.459778e+00 135 133 139
-2.533577e+00 -9.984859e-01 2.044804e+00 31 31 47
-1.426722e+01 2.432356e+00 -2.551481e+01 229 231 216
