ply
format ascii 1.0
element vertex 918
property float x
property float y
property float z
property uchar diffuse_red
property uchar diffuse_green
property uchar diffuse_blue
end_header
-4.740718e+01 3.194791e+01 -1.046680e+02 254 225 193
-5.035327e+01 3.220687e+01 -9.979701e+01 249 223 196
-3.805785e+01 3.367810e+01 -1.033086e+02 191 187 175
-3.805785e+01 3.367810e+01 -1.033086e+02 191 187 175
-4.789174e+01 3.485007e+01 -1.033243e+02 231 202 178
-4.703501e+01 3.537988e+01 -1.046932e+02 243 229 201
-4.639681e+01 3.842521e+01 -1.056412e+02 138 123 124
-4.591855e+01 3.918063e+01 -1.056330e+02 254 255 252
1.610537e+01 8.954591e+00 -3.944987e+01 119 120 71
8.752134e+00 1.055130e+01 -4.411117e+01 117 112 51
6.725191e+00 1.180118e+01 -4.666849e+01 167 168 92
9.180624e+00 1.283721e+01 -4.747804e+01 214 213 131
8.257790e+00 1.366781e+01 -4.876785e+01 222 221 111
1.664517e+01 1.395658e+01 -4.628515e+01 232 228 148
2.819577e+01 1.277196e+01 -3.903134e+01 160 139 90
-5.054744e+01 2.848557e+01 -1.004200e+02 128 117 97
-5.045433e+01 2.839861e+01 -1.000430e+02 128 117 97
3.057264e+01 2.097886e+01 -6.487771e+01 249 249 239
-4.672697e+01 3.209638e+01 -1.056307e+02 246 230 201
-4.672307e+01 3.288066e+01 -1.055376e+02 212 191 165
-4.553768e+01 3.319805e+01 -1.064709e+02 255 255 251
-5.114577e+01 3.267587e+01 -9.861575e+01 232 212 169
-5.166388e+01 3.428909e+01 -9.736853e+01 218 207 141
-5.099860e+01 3.499552e+01 -9.754027e+01 213 196 161
-4.636718e+01 3.912803e+01 -1.053579e+02 159 141 139
-5.428601e+00 -1.830472e+00 6.586707e+00 254 253 246
-4.660320e+01 1.713778e+01 -7.436471e+01 253 224 159
1.489048e+01 1.024730e+01 -4.182523e+01 208 211 118
-5.233094e+01 2.008574e+01 -8.041329e+01 248 212 139
1.192118e+01 1.177009e+01 -4.471670e+01 153 125 83
1.643758e+01 1.165329e+01 -4.317436e+01 178 177 68
1.153513e+01 1.222277e+01 -4.557629e+01 234 228 117
-5.141291e+01 2.121931e+01 -8.198515e+01 177 202 118
-5.141291e+01 2.121931e+01 -8.198515e+01 177 202 118
2.368996e+01 1.207247e+01 -4.007593e+01 106 100 46
2.975624e+01 1.230441e+01 -3.776453e+01 210 189 119
-4.974173e+01 2.822177e+01 -1.008042e+02 99 101 92
-4.801022e+01 2.920411e+01 -1.039227e+02 110 99 84
-4.816170e+01 2.965739e+01 -1.037646e+02 114 102 93
-4.816993e+01 2.966966e+01 -1.037945e+02 114 102 93
-5.450353e+01 2.763519e+01 -9.421186e+01 200 183 124
-5.456622e+01 2.825332e+01 -9.409307e+01 230 212 151
-4.980118e+01 3.035740e+01 -1.011443e+02 233 236 239
-4.536635e+01 3.347726e+01 -1.077197e+02 201 198 181
-4.793994e+01 3.257284e+01 -1.035359e+02 128 108 94
-4.793994e+01 3.257284e+01 -1.035359e+02 128 108 94
-4.880790e+01 3.248944e+01 -1.023656e+02 228 222 193
-4.533287e+01 3.457357e+01 -1.074947e+02 204 199 189
-5.165726e+01 3.278177e+01 -1.005396e+02 172 139 115
-5.140699e+01 3.208264e+01 -9.740967e+01 171 146 109
-5.140699e+01 3.208264e+01 -9.740967e+01 171 146 109
-4.635398e+01 3.606057e+01 -1.057396e+02 249 225 205
-5.018045e+01 3.479618e+01 -9.992664e+01 142 134 136
-4.630819e+01 3.655303e+01 -1.055019e+02 229 204 185
-5.095016e+01 3.439710e+01 -9.779717e+01 200 185 148
-3.662844e+01 3.583183e+01 -1.019277e+02 237 239 218
-2.128829e+01 2.666248e+01 -6.804689e+01 246 241 222
-5.099827e+01 3.320205e+01 -8.698473e+01 236 220 168
-4.556992e+01 3.924002e+01 -1.062688e+02 175 173 158
1.465619e+01 8.139301e+00 -3.794359e+01 168 167 124
-5.204507e+01 1.614780e+01 -7.361049e+01 173 180 131
-5.120640e+01 1.688061e+01 -7.474832e+01 72 74 40
-4.800434e+01 1.677919e+01 -7.369181e+01 207 214 152
-4.800434e+01 1.677919e+01 -7.369181e+01 207 214 152
1.271916e+01 9.578432e+00 -4.138156e+01 216 223 115
-4.837445e+01 1.740399e+01 -7.436242e+01 208 213 154
-4.579759e+01 1.846705e+01 -7.588421e+01 213 224 171
-4.579759e+01 1.846705e+01 -7.588421e+01 213 224 171
6.994477e+00 1.160776e+01 -4.570339e+01 229 232 159
1.139346e+01 1.150093e+01 -4.437071e+01 223 231 125
-5.302745e+01 2.036742e+01 -8.105557e+01 105 116 63
-5.200868e+01 2.049348e+01 -8.079666e+01 178 194 136
1.571876e+01 1.188023e+01 -4.368452e+01 211 218 124
1.581213e+01 1.233355e+01 -4.469082e+01 103 95 48
1.478524e+01 1.261225e+01 -4.530665e+01 178 190 92
-4.594356e+01 2.267361e+01 -8.298311e+01 255 232 172
-4.751489e+01 2.997442e+01 -1.048291e+02 242 220 188
-5.247269e+01 2.811655e+01 -9.673584e+01 232 211 167
-4.725316e+01 3.086152e+01 -1.048452e+02 243 209 179
-4.760853e+01 3.062374e+01 -1.038355e+02 245 212 184
-4.872575e+01 3.092624e+01 -1.026615e+02 229 216 198
-4.607881e+01 3.215798e+01 -1.070244e+02 244 213 206
-5.503993e+01 2.866653e+01 -9.251918e+01 207 192 147
-4.575920e+01 3.271730e+01 -1.071922e+02 255 251 254
-5.062402e+01 3.097876e+01 -9.967558e+01 255 236 205
-4.984381e+01 3.132129e+01 -1.009551e+02 234 233 235
-4.883842e+01 3.181612e+01 -1.025500e+02 215 207 188
-4.899141e+01 3.205655e+01 -1.022134e+02 114 112 109
-4.615420e+01 3.336844e+01 -1.067565e+02 247 222 195
-4.768915e+01 3.264547e+01 -1.039831e+02 248 220 192
-4.989660e+01 3.188410e+01 -1.008910e+02 237 236 235
-5.056507e+01 3.167171e+01 -9.961624e+01 160 130 119
-4.826997e+01 3.294431e+01 -1.028219e+02 233 218 192
-4.827984e+01 3.295168e+01 -1.028612e+02 233 218 192
-4.623137e+01 3.488452e+01 -1.062249e+02 242 211 190
-5.075590e+01 3.282455e+01 -9.853908e+01 157 134 104
-4.805315e+01 3.420545e+01 -1.028975e+02 171 145 125
-4.999697e+01 3.420696e+01 -1.004072e+02 230 225 227
-5.011025e+01 3.414305e+01 -9.990003e+01 143 129 126
-5.092883e+01 3.414999e+01 -9.821700e+01 202 189 154
-4.024646e+01 3.598814e+01 -1.034008e+02 239 237 219
-3.951993e+01 3.614867e+01 -1.037398e+02 234 236 214
-5.019444e+01 3.532665e+01 -9.969746e+01 151 144 140
-4.676838e+01 3.862459e+01 -1.036632e+02 237 204 181
-2.197312e+01 2.743147e+01 -6.851457e+01 82 82 67
-4.992527e+01 1.706320e+01 -7.397818e+01 170 176 119
-4.833614e+01 1.710403e+01 -7.383014e+01 112 115 66
1.647842e+01 9.473369e+00 -4.023931e+01 145 133 86
9.893426e+00 1.027286e+01 -4.363889e+01 116 102 59
9.837230e+00 1.023870e+01 -4.347245e+01 116 102 59
1.075731e+01 1.032054e+01 -4.332813e+01 114 115 40
1.370657e+01 1.013420e+01 -4.221806e+01 160 158 100
2.022113e+01 9.508413e+00 -3.865299e+01 201 194 128
1.242880e+01 1.055718e+01 -4.290813e+01 235 228 159
1.433019e+01 1.081068e+01 -4.298096e+01 235 223 150
1.349231e+01 1.104142e+01 -4.370028e+01 184 170 102
1.652940e+01 1.069798e+01 -4.182018e+01 176 174 94
8.413399e+00 1.149186e+01 -4.569452e+01 165 148 71
1.822685e+01 1.056126e+01 -4.105334e+01 247 229 172
6.806732e+00 1.239558e+01 -4.747158e+01 222 217 156
-5.088283e+01 2.074663e+01 -8.157882e+01 187 200 132
1.064376e+01 1.219065e+01 -4.597589e+01 139 133 49
2.640542e+01 1.026446e+01 -3.646364e+01 142 127 72
-4.344111e+01 1.970858e+01 -7.622662e+01 232 212 157
8.034631e+00 1.283893e+01 -4.783957e+01 189 188 100
1.369917e+01 1.228156e+01 -4.475768e+01 252 232 172
-4.698764e+01 2.114357e+01 -8.081112e+01 244 222 159
-5.393078e+01 2.195120e+01 -8.353539e+01 209 219 134
-5.393078e+01 2.195120e+01 -8.353539e+01 209 219 134
1.426194e+01 1.243910e+01 -4.504881e+01 136 131 77
6.918593e+00 1.351531e+01 -4.933929e+01 97 96 47
-4.648365e+01 2.142208e+01 -8.067583e+01 219 216 149
1.727086e+01 1.259992e+01 -4.390562e+01 226 222 158
8.580073e+00 1.391847e+01 -4.910454e+01 113 89 27
1.921976e+01 1.345080e+01 -4.485099e+01 224 207 152
1.048093e+01 1.473858e+01 -5.013326e+01 214 209 140
1.826414e+01 1.374193e+01 -4.553019e+01 237 225 150
2.007016e+01 1.394645e+01 -4.483744e+01 133 149 46
2.007016e+01 1.394645e+01 -4.483744e+01 133 149 46
1.470678e+01 1.465524e+01 -4.789055e+01 178 172 80
1.619965e+01 1.473322e+01 -4.774359e+01 241 232 135
1.367929e+01 1.502747e+01 -4.884687e+01 248 250 146
-1.879039e+01 4.716423e+00 -5.242756e+00 76 102 126
-5.586337e+01 2.748057e+01 -9.220309e+01 222 210 163
-4.894570e+01 3.030746e+01 -1.027229e+02 120 118 114
-4.894570e+01 3.030746e+01 -1.027229e+02 120 118 114
-5.568715e+01 2.764564e+01 -9.151699e+01 219 196 154
-5.594196e+01 2.784872e+01 -9.110306e+01 227 207 154
-4.585231e+01 3.332654e+01 -1.073975e+02 251 244 236
-5.165390e+01 3.204317e+01 -9.838255e+01 235 215 155
-2.117536e+01 2.439086e+01 -6.855186e+01 208 205 189
-4.828423e+01 3.468409e+01 -1.025873e+02 144 131 112
-4.923899e+01 3.441956e+01 -1.015540e+02 224 235 227
-4.830756e+01 3.516228e+01 -1.023951e+02 140 127 108
-5.047620e+01 3.441373e+01 -9.910813e+01 229 215 180
-4.862525e+01 3.546773e+01 -1.017545e+02 238 228 203
-4.854740e+01 3.645338e+01 -1.022204e+02 238 220 196
-5.025270e+01 3.592156e+01 -9.955783e+01 156 150 145
-4.854258e+01 3.701751e+01 -1.019404e+02 239 220 200
-2.166490e+01 2.726642e+01 -6.811305e+01 94 90 81
3.976618e+01 2.195637e+01 -5.715255e+01 229 230 216
3.874261e+01 2.322310e+01 -5.845884e+01 144 151 151
4.096276e+01 1.871826e+01 -5.347333e+01 73 78 53
3.875253e+01 2.479524e+01 -5.783426e+01 147 152 150
3.983211e+01 2.626043e+01 -5.709229e+01 229 227 212
-9.377822e+00 -3.518842e+00 4.752971e+00 11 13 10
-2.677998e+01 2.941565e+01 -9.803579e+01 149 152 145
-2.081718e+01 2.731065e+01 -6.973265e+01 246 239 217
-8.350335e+00 -3.967619e+00 5.142630e+00 105 107 99
-2.545611e+01 1.708138e+01 -6.886743e+01 226 214 159
-2.575021e+01 1.942509e+01 -7.214148e+01 183 175 127
4.908166e+01 2.213111e+01 -5.203712e+01 167 168 162
2.686454e+00 3.067263e+01 -7.884219e+01 242 238 225
2.686454e+00 3.067263e+01 -7.884219e+01 242 238 225
3.348514e+01 7.794223e+00 -3.006165e+01 102 94 69
-2.675314e+01 1.932363e+01 -7.036363e+01 98 112 54
1.035867e+01 1.711605e+01 -5.198929e+01 251 249 236
1.105449e+01 1.749586e+01 -5.126220e+01 255 250 229
-2.731115e+01 3.088816e+01 -9.719368e+01 156 157 152
4.126189e+01 1.782798e+01 -5.202127e+01 56 60 40
2.960563e+01 2.380527e+01 -6.217317e+01 172 170 171
-2.186475e+01 2.734605e+01 -6.856374e+01 109 107 108
-3.300008e+01 3.935455e+01 -9.893118e+01 181 178 169
-2.612396e+01 1.743529e+01 -6.991003e+01 129 114 75
-2.708356e+01 1.718935e+01 -6.821024e+01 186 200 129
-2.259568e+01 1.845493e+01 -6.953480e+01 153 147 62
-2.055675e+01 1.961499e+01 -6.931152e+01 245 231 205
-1.926341e+01 1.967145e+01 -6.933527e+01 247 234 213
3.622645e+01 1.205476e+01 -3.472882e+01 205 207 119
4.021433e+01 1.725296e+01 -5.113719e+01 172 182 92
4.879260e+01 1.770701e+01 -5.150716e+01 134 142 83
4.075169e+01 1.897301e+01 -5.641323e+01 86 98 53
4.163809e+01 1.782579e+01 -5.170517e+01 92 94 54
4.074112e+01 1.802265e+01 -5.241957e+01 50 50 36
3.966493e+01 1.678360e+01 -4.601635e+01 233 230 213
4.108065e+01 1.894858e+01 -5.168932e+01 127 138 115
4.862604e+01 2.148313e+01 -5.262183e+01 173 172 171
-2.170182e+01 2.695039e+01 -6.917789e+01 114 102 94
-1.720774e+01 -3.538706e-01 2.181223e+00 148 159 183
-2.731230e+01 1.656122e+01 -6.813706e+01 211 223 136
-2.575339e+01 1.749808e+01 -6.939478e+01 213 214 139
-2.560726e+01 1.852738e+01 -7.085629e+01 224 207 154
3.021919e+01 8.687289e+00 -3.290235e+01 105 101 55
2.784231e+01 9.205334e+00 -3.405964e+01 204 204 114
3.397908e+01 9.250199e+00 -3.262253e+01 178 188 92
-1.999892e+01 1.998990e+01 -6.916150e+01 252 251 232
-1.999102e+01 1.999730e+01 -6.926014e+01 252 251 232
3.595042e+01 1.061732e+01 -3.368176e+01 191 187 109
-2.258774e+01 2.652227e+01 -9.450395e+01 246 244 231
-2.476181e+01 2.910681e+01 -9.687353e+01 175 177 163
-2.085081e+01 2.213170e+01 -6.897738e+01 203 186 167
2.969155e+01 2.087356e+01 -6.449563e+01 250 248 238
-3.475148e+01 3.777230e+01 -1.008068e+02 181 178 169
-2.195078e+01 2.917537e+01 -6.774847e+01 222 209 166
-2.921786e+01 1.568973e+01 -6.806823e+01 45 41 37
-2.695180e+01 1.598774e+01 -6.825877e+01 251 211 160
-2.499499e+01 1.684436e+01 -6.910377e+01 148 146 81
-2.942720e+01 1.720327e+01 -6.874402e+01 115 118 68
-2.916308e+01 1.757450e+01 -6.905137e+01 201 211 120
-2.509017e+01 1.803661e+01 -6.993931e+01 176 179 95
-2.681828e+01 1.895933e+01 -7.072971e+01 202 229 110
3.325102e+01 9.217624e+00 -3.238675e+01 151 126 69
3.325102e+01 9.217624e+00 -3.238675e+01 151 126 69
-2.237507e+01 1.957048e+01 -7.134419e+01 230 227 153
-2.194135e+01 1.958249e+01 -7.122225e+01 204 207 123
2.424351e+01 1.195371e+01 -3.939383e+01 159 150 94
-1.961362e+01 2.224640e+01 -6.939496e+01 248 246 225
4.043746e+01 1.843142e+01 -5.302322e+01 53 53 39
4.077562e+01 1.914396e+01 -5.532831e+01 237 235 215
-2.125418e+01 2.809003e+01 -6.858628e+01 255 254 253
-2.139404e+01 2.919145e+01 -6.842050e+01 255 253 231
-1.707599e+01 -4.702025e-01 2.200512e+00 233 248 250
-2.846707e+01 1.654017e+01 -6.705065e+01 96 116 49
-2.669839e+01 1.760395e+01 -6.956110e+01 79 99 22
-2.722894e+01 1.800925e+01 -6.886122e+01 205 225 146
-2.863034e+01 1.829480e+01 -6.911699e+01 190 213 126
-2.712195e+01 1.862669e+01 -6.956658e+01 231 253 184
3.589317e+01 9.296339e+00 -3.108672e+01 125 120 52
-2.093918e+01 1.946131e+01 -6.947058e+01 91 89 64
-2.091762e+01 1.953993e+01 -6.977111e+01 91 89 64
-1.982818e+01 1.956560e+01 -6.911517e+01 232 227 192
-2.084514e+01 2.009577e+01 -6.940483e+01 91 89 86
3.531121e+01 1.022362e+01 -3.255620e+01 210 209 108
3.531121e+01 1.022362e+01 -3.255620e+01 210 209 108
-2.229759e+01 2.627999e+01 -9.445922e+01 201 204 169
-2.229759e+01 2.627999e+01 -9.445922e+01 201 204 169
3.480829e+01 1.034705e+01 -3.294113e+01 109 96 43
-2.082712e+01 2.056507e+01 -6.945395e+01 87 80 70
-2.016001e+01 2.133319e+01 -6.886050e+01 255 254 246
-2.022559e+01 2.377387e+01 -6.840544e+01 255 254 244
-2.073187e+01 2.602058e+01 -6.825937e+01 255 254 245
1.347839e+01 3.036196e+01 -7.353245e+01 142 134 135
-2.166859e+01 2.921800e+01 -6.780428e+01 120 109 83
-2.952648e+01 1.627252e+01 -6.734167e+01 55 73 15
-2.734474e+01 1.681132e+01 -6.786852e+01 84 89 30
-2.734474e+01 1.681132e+01 -6.786852e+01 84 89 30
-2.497041e+01 1.781592e+01 -6.999540e+01 236 224 174
-2.806638e+01 1.835706e+01 -6.952159e+01 83 96 46
-2.135256e+01 1.826483e+01 -6.841616e+01 229 234 129
3.450814e+01 8.601734e+00 -3.053860e+01 145 133 73
-2.306524e+01 1.901442e+01 -7.015354e+01 226 226 139
2.466370e+01 1.076545e+01 -3.803796e+01 190 192 114
-2.130278e+01 1.942551e+01 -6.984402e+01 225 218 184
2.806165e+01 1.039290e+01 -3.577798e+01 135 126 44
3.132166e+01 1.031727e+01 -3.455441e+01 131 144 67
3.174660e+01 1.029638e+01 -3.419302e+01 105 99 40
2.544825e+01 1.168841e+01 -3.889399e+01 109 118 46
2.441748e+01 1.178332e+01 -3.920853e+01 123 120 58
-2.083336e+01 2.086263e+01 -6.918509e+01 186 181 160
3.460887e+01 1.161845e+01 -3.513209e+01 146 131 74
2.733586e+01 1.262348e+01 -3.901618e+01 136 128 51
3.593795e+01 1.130733e+01 -3.369832e+01 186 178 109
3.502554e+01 1.167210e+01 -3.438085e+01 161 172 85
3.850214e+01 1.615001e+01 -4.479153e+01 93 103 70
4.058323e+01 1.907943e+01 -5.480941e+01 240 238 221
4.109123e+01 1.844542e+01 -5.177509e+01 179 190 131
4.147784e+01 1.844051e+01 -5.163329e+01 212 218 180
4.145576e+01 1.858007e+01 -5.188343e+01 77 82 57
4.145576e+01 1.858007e+01 -5.188343e+01 77 82 57
-2.165818e+01 2.866239e+01 -6.811463e+01 240 226 198
1.312197e+01 3.028790e+01 -7.342572e+01 132 125 133
-4.308839e+00 -3.777888e+00 5.901542e+00 170 184 185
-3.344228e+01 3.179100e+01 -1.010006e+02 178 178 165
1.373103e+01 7.838350e+00 -3.837673e+01 207 212 215
-4.914554e+01 3.684651e+01 -1.017301e+02 149 147 138
-8.577975e+00 -4.270557e+00 4.996716e+00 116 117 112
-9.327452e+00 -3.834815e+00 4.737837e+00 155 166 173
-2.296176e+01 -2.224515e+00 -1.417490e+00 255 255 255
-2.317976e+01 -1.817069e+00 -1.436412e+00 79 80 82
5.416197e+00 1.246803e+01 -4.901732e+01 235 234 138
1.387026e+01 1.484340e+01 -4.826800e+01 230 236 115
-4.751843e+01 3.339362e+01 -1.039909e+02 232 205 173
-4.751843e+01 3.339362e+01 -1.039909e+02 232 205 173
-2.336817e+01 -3.389040e+00 -1.927408e+00 208 208 206
1.317513e+01 8.907912e+00 -1.892521e+02 17 16 16
-2.261525e+01 1.691077e+00 -6.168067e-01 231 238 244
4.467315e+00 1.217161e+01 -4.859027e+01 177 177 113
4.463152e+00 1.216158e+01 -4.856590e+01 177 177 113
1.412639e+01 1.187462e+01 -4.467278e+01 249 239 162
1.380215e+01 1.351882e+01 -4.663358e+01 175 192 86
1.374576e+01 1.345422e+01 -4.640686e+01 175 192 86
9.521421e+00 1.440260e+01 -4.946893e+01 231 233 129
1.162067e+01 1.529988e+01 -5.084879e+01 161 158 101
-3.506636e+00 2.465054e+01 -8.488060e+01 250 248 235
2.877124e+00 2.419214e+01 -8.189794e+01 250 250 236
5.021956e+00 2.356652e+01 -7.908824e+01 255 254 251
-1.946621e+01 3.130747e+01 -9.234496e+01 247 245 229
-5.090387e+01 3.444384e+01 -9.918201e+01 227 210 165
-4.600972e+01 3.822072e+01 -1.065581e+02 255 255 255
-2.295016e+01 -3.700890e+00 -1.747243e+00 204 210 210
-2.463928e+01 -3.143732e+00 -2.233478e+00 134 134 129
-1.162093e+01 -3.465173e+00 3.830512e+00 147 162 164
-2.252131e+01 -2.367449e+00 -1.206818e+00 200 209 212
1.147895e+01 9.621627e+00 -4.215244e+01 158 172 91
7.244030e+00 1.110274e+01 -4.589481e+01 123 131 77
7.244030e+00 1.110274e+01 -4.589481e+01 123 131 77
4.280880e+00 1.314732e+01 -5.019743e+01 157 149 86
1.660836e+01 1.279830e+01 -4.475075e+01 198 209 113
1.446365e+01 1.357958e+01 -4.662105e+01 216 215 119
1.049182e+01 1.568644e+01 -5.161269e+01 223 206 136
-4.736339e+01 3.189611e+01 -1.045267e+02 255 227 197
-1.977823e+01 2.316875e+01 -6.867606e+01 254 254 253
-1.928082e+01 3.081821e+01 -9.265622e+01 179 183 166
-4.651454e+01 3.523499e+01 -1.049594e+02 115 96 84
1.034829e+01 1.965376e+01 -5.105011e+01 127 121 125
1.034829e+01 1.965376e+01 -5.105011e+01 127 121 125
-4.583239e+01 3.661117e+01 -1.064102e+02 254 255 255
9.808561e+00 8.474045e+00 -4.071321e+01 222 226 220
1.071922e+01 8.512770e+00 -4.061756e+01 237 230 228
1.400991e+01 8.582455e+00 -3.971410e+01 114 111 76
1.068724e+01 8.819664e+00 -4.100585e+01 176 179 115
1.040497e+01 9.108361e+00 -4.157650e+01 222 198 139
1.178571e+01 1.023368e+01 -4.288918e+01 172 175 99
1.209606e+01 1.033408e+01 -4.295171e+01 225 218 141
8.592386e-01 1.184129e+01 -4.987531e+01 254 233 183
5.272580e+00 1.137641e+01 -4.720319e+01 225 215 128
-1.374771e+00 1.234362e+01 -5.053977e+01 195 189 152
-6.655630e+01 2.227233e+01 -8.540824e+01 138 126 100
-6.472032e+01 2.212656e+01 -8.458712e+01 163 150 117
1.222294e+01 1.407684e+01 -4.798492e+01 166 189 101
1.547715e+01 1.394803e+01 -4.659792e+01 210 199 122
1.455347e+01 1.411667e+01 -4.719603e+01 104 98 47
8.869781e+00 1.548556e+01 -5.187219e+01 176 189 104
-5.534978e+01 2.911035e+01 -9.151592e+01 217 199 164
-5.494285e+01 3.005295e+01 -9.208358e+01 212 179 139
-5.068638e+01 3.354704e+01 -9.889275e+01 255 236 206
-5.472467e+01 3.219481e+01 -9.147835e+01 237 226 170
-5.113433e+01 3.393606e+01 -9.785961e+01 126 113 91
-4.855042e+01 3.497199e+01 -1.017146e+02 237 229 196
1.120252e+01 8.458966e+00 -4.026925e+01 236 239 239
8.055392e+00 9.014757e+00 -4.250647e+01 151 151 123
9.968349e+00 8.795947e+00 -4.126372e+01 100 98 78
1.359131e+01 8.784436e+00 -4.011351e+01 223 218 153
1.573570e+01 9.252907e+00 -4.016566e+01 222 218 144
4.909986e+00 1.088183e+01 -4.697235e+01 229 224 131
4.909986e+00 1.088183e+01 -4.697235e+01 229 224 131
1.205324e+01 1.035021e+01 -4.285627e+01 221 212 134
7.127070e+00 1.141568e+01 -4.648366e+01 206 217 131
6.151971e+00 1.211941e+01 -4.771000e+01 177 170 109
-6.085712e+01 2.204684e+01 -8.371677e+01 110 107 102
9.803198e+00 1.307283e+01 -4.748631e+01 177 161 95
1.241805e+01 1.280281e+01 -4.611446e+01 206 219 129
2.795073e+00 1.580892e+01 -5.475975e+01 228 227 147
1.527827e+01 1.487659e+01 -4.794133e+01 238 238 129
3.378996e+00 2.397056e+01 -8.131860e+01 164 164 160
3.378996e+00 2.397056e+01 -8.131860e+01 164 164 160
-4.648181e+01 3.349251e+01 -1.060126e+02 124 97 82
-4.776209e+01 3.319313e+01 -1.037098e+02 247 219 195
-5.116136e+01 3.337035e+01 -9.758678e+01 222 198 162
-4.743898e+01 3.908194e+01 -1.032336e+02 244 206 180
-2.507347e+01 -1.076060e+00 -1.993504e+00 20 28 18
9.054738e+00 9.171238e+00 -4.221400e+01 147 130 86
-9.120668e+00 1.418279e+00 6.188368e-01 50 54 65
5.635562e+00 1.037919e+01 -4.537551e+01 170 182 82
8.442320e+00 1.060945e+01 -4.505631e+01 140 124 75
1.151270e+01 1.010607e+01 -4.230847e+01 161 158 91
1.128817e+01 1.018649e+01 -4.281041e+01 135 146 60
5.373405e+00 1.106594e+01 -4.668557e+01 118 116 50
2.027192e+00 1.153897e+01 -4.878050e+01 239 226 169
2.027192e+00 1.153897e+01 -4.878050e+01 239 226 169
-6.825742e-01 1.238170e+01 -5.064238e+01 62 65 36
-6.817946e-01 1.239004e+01 -5.066471e+01 62 65 36
-1.101415e+00 1.262210e+01 -5.068725e+01 52 39 34
1.205543e+01 1.123787e+01 -4.419796e+01 145 138 72
1.357796e+01 1.116344e+01 -4.369648e+01 224 213 125
1.273498e+01 1.121795e+01 -4.352816e+01 236 231 147
8.772235e+00 1.197199e+01 -4.625775e+01 217 219 140
5.269737e+00 1.242409e+01 -4.839680e+01 249 252 150
-4.522040e-01 1.302660e+01 -5.097210e+01 211 223 162
7.165024e+00 1.257016e+01 -4.795026e+01 135 146 78
6.124695e+00 1.293514e+01 -4.877536e+01 236 242 115
-6.091261e+01 2.229745e+01 -8.480516e+01 100 86 84
-6.058837e+01 2.222825e+01 -8.361141e+01 219 212 175
5.665867e+00 1.355781e+01 -5.010327e+01 218 220 117
-6.058430e+01 2.258189e+01 -8.342335e+01 232 219 187
1.475975e+01 1.262183e+01 -4.527332e+01 157 173 81
6.375387e+00 1.363144e+01 -4.988297e+01 190 178 102
3.266404e+00 1.418314e+01 -5.211696e+01 165 169 94
1.612422e+01 1.278339e+01 -4.493161e+01 131 128 60
1.595966e+01 1.308299e+01 -4.548290e+01 247 234 166
4.099190e+00 1.555450e+01 -5.302450e+01 229 239 154
1.427588e+01 1.441554e+01 -4.809312e+01 231 225 113
1.478943e+01 1.451884e+01 -4.794583e+01 223 219 112
3.186539e+00 2.410364e+01 -8.068755e+01 251 248 241
3.159543e+00 2.404426e+01 -8.050933e+01 251 248 241
-5.496114e+01 2.919448e+01 -9.218975e+01 238 217 172
-5.018528e+01 3.140427e+01 -1.002081e+02 254 243 218
-4.602843e+01 3.290372e+01 -1.061246e+02 237 210 187
-4.991788e+01 3.215210e+01 -1.008637e+02 236 237 231
-4.991788e+01 3.215210e+01 -1.008637e+02 236 237 231
-5.090167e+01 3.167036e+01 -9.888595e+01 250 232 201
1.064710e+01 1.777778e+01 -5.098009e+01 127 122 85
-4.985575e+01 3.238058e+01 -1.005376e+02 237 242 239
-4.832916e+01 3.589159e+01 -1.019536e+02 235 228 201
-4.997502e+01 3.556895e+01 -9.972405e+01 250 252 250
-6.393351e+01 3.208569e+01 -8.137185e+01 146 93 80
-8.084675e+00 -4.710212e+00 4.864188e+00 232 233 233
3.908333e+00 -2.863055e+00 -3.546038e+00 189 194 186
-2.264375e+01 -2.514092e+00 -1.264725e+00 142 141 126
1.469258e+01 7.171820e+00 -3.725989e+01 144 132 131
-1.269508e+01 5.282473e-01 3.545441e+00 190 209 234
1.021850e+01 8.767240e+00 -4.134965e+01 94 98 80
1.221631e+01 8.483134e+00 -3.970677e+01 144 143 109
5.684992e+00 1.018794e+01 -4.526983e+01 252 241 177
4.574743e+00 1.094416e+01 -4.693840e+01 253 242 176
4.500085e+00 1.119329e+01 -4.685110e+01 228 230 133
1.137736e+01 1.045635e+01 -4.313926e+01 222 224 126
8.320410e+00 1.091515e+01 -4.467139e+01 222 217 127
1.067038e+01 1.076796e+01 -4.376899e+01 232 227 120
4.250747e-01 1.223230e+01 -5.066883e+01 142 98 61
6.013802e+00 1.158901e+01 -4.709229e+01 254 249 185
-1.016306e+00 1.236699e+01 -5.056933e+01 67 63 49
-8.766743e-01 1.243132e+01 -5.039588e+01 199 203 157
-8.611275e-01 1.246337e+01 -5.053621e+01 199 203 157
-6.012589e-01 1.279386e+01 -5.057353e+01 45 50 23
7.269399e-01 1.344372e+01 -5.235755e+01 255 251 187
1.026394e+01 1.219145e+01 -4.578865e+01 224 218 118
5.883993e+00 1.309805e+01 -4.928323e+01 169 174 63
-6.210885e+01 2.199366e+01 -8.303128e+01 92 89 76
5.147834e+00 1.360235e+01 -5.062399e+01 231 228 125
-6.080683e+01 2.239089e+01 -8.330129e+01 119 115 107
2.942064e+00 1.409470e+01 -5.219913e+01 192 198 101
8.549301e-01 1.454268e+01 -5.411400e+01 230 230 153
6.980153e+00 1.358862e+01 -4.963616e+01 95 98 40
1.278980e+01 1.296564e+01 -4.637615e+01 212 213 138
9.004535e+00 1.342967e+01 -4.827016e+01 220 207 138
1.151786e+01 1.290833e+01 -4.579859e+01 169 169 85
-2.225204e-01 1.519024e+01 -5.518672e+01 236 230 162
1.626386e+01 1.280295e+01 -4.479854e+01 222 225 140
1.620416e+01 1.276724e+01 -4.459177e+01 222 225 140
1.870728e+00 1.520485e+01 -5.431470e+01 222 225 142
4.561307e+00 1.501135e+01 -5.283691e+01 245 241 138
1.317050e+01 1.382386e+01 -4.741011e+01 225 221 121
-1.268398e+00 1.606542e+01 -5.691221e+01 194 186 110
9.999720e+00 1.469295e+01 -5.012945e+01 225 232 119
-5.789344e+01 2.485088e+01 -8.742955e+01 255 235 204
-5.789344e+01 2.485088e+01 -8.742955e+01 255 235 204
3.391957e+00 1.605285e+01 -5.491614e+01 160 153 78
3.391957e+00 1.605285e+01 -5.491614e+01 160 153 78
9.416632e+00 1.601208e+01 -5.271333e+01 227 228 139
9.139057e+00 1.612564e+01 -5.315661e+01 213 213 120
-5.540353e+01 2.705818e+01 -9.193530e+01 234 222 170
1.105809e+01 1.634968e+01 -5.140912e+01 255 255 222
-5.011416e+01 3.092538e+01 -1.003110e+02 248 229 210
-5.539818e+01 2.905642e+01 -9.119517e+01 234 210 175
-5.535404e+01 2.928779e+01 -9.092296e+01 233 218 177
-5.530135e+01 2.950141e+01 -9.177269e+01 227 203 170
-5.016060e+01 3.247842e+01 -9.991006e+01 255 242 222
-5.062872e+01 3.248764e+01 -9.845610e+01 157 142 106
-5.234608e+01 3.248974e+01 -9.583120e+01 226 215 153
-4.981751e+01 3.367117e+01 -9.991010e+01 248 251 251
-5.594919e+01 3.116192e+01 -8.975071e+01 255 238 202
-5.597478e+01 3.118153e+01 -8.981854e+01 255 238 202
-4.783940e+01 3.693858e+01 -1.028449e+02 254 226 209
-4.960727e+01 3.622003e+01 -9.966476e+01 238 238 230
-4.797053e+01 3.833751e+01 -1.025560e+02 248 219 194
-6.121932e+01 3.232231e+01 -8.135749e+01 204 186 167
-4.504445e+00 -2.261823e+00 5.369111e+00 255 255 255
-1.045596e+01 -2.770714e+00 3.639363e+00 153 168 175
-1.570303e+01 4.109914e+00 -4.656151e+00 181 200 154
-5.127098e+00 -2.097605e+00 6.498954e+00 239 146 83
-1.195115e+01 1.783725e-01 4.035466e+00 253 253 254
-9.025338e+00 -3.144665e+00 5.005998e+00 26 28 29
-8.109432e+00 -3.781023e+00 5.258041e+00 182 192 199
-8.089803e+00 -3.780653e+00 5.236224e+00 182 192 199
-8.213597e+00 -4.882207e+00 5.011555e+00 135 143 149
2.447796e+01 1.231087e+01 -4.030303e+01 187 176 108
-8.948332e+00 -3.934496e+00 4.982062e+00 172 183 187
-8.948332e+00 -3.934496e+00 4.982062e+00 172 183 187
-7.818534e+00 -3.715054e+00 5.452704e+00 187 194 203
-4.785316e+00 -2.188190e+00 6.603807e+00 254 255 253
-1.642734e+01 -2.786032e-01 2.410811e+00 241 250 254
-8.195675e+00 -3.173098e+00 5.392879e+00 217 224 223
-8.572586e+00 -3.488572e+00 5.197156e+00 200 210 219
1.447670e+01 -6.951146e-01 -9.155868e+00 121 123 116
2.373702e+01 1.083920e+01 -3.852550e+01 91 89 58
-1.752683e+01 -1.736801e+00 1.751332e+00 192 211 223
-1.162180e+01 -2.285323e+00 4.254105e+00 210 223 221
-1.159139e+01 -2.242676e+00 4.122743e+00 19 29 46
1.279106e+01 -1.767640e+00 -5.842869e+00 205 213 204
-7.203581e+00 -4.844333e+00 5.419729e+00 72 73 72
-8.088531e+00 -3.115973e+00 5.440208e+00 137 144 160
2.491917e+01 1.201932e+01 -3.917001e+01 147 142 77
-1.789004e+01 3.266896e+00 9.983736e-01 92 117 132
6.521333e+00 1.318939e+01 -4.927932e+01 207 198 78
-9.068872e+00 -2.887659e+00 5.078281e+00 150 146 136
1.279038e+01 1.026476e+01 -4.293205e+01 139 122 63
1.241934e+01 1.280274e+01 -4.611687e+01 202 212 118
1.386633e+01 1.238481e+01 -4.521817e+01 227 199 135
5.663657e+00 1.264185e+01 -4.874838e+01 98 88 27
6.080485e+00 1.296179e+01 -4.888619e+01 216 212 92
6.080485e+00 1.296179e+01 -4.888619e+01 216 212 92
-7.721592e+00 -4.317108e+00 5.297183e+00 77 78 79
1.337190e+01 9.100044e+00 -4.072407e+01 116 98 34
1.428586e+01 1.419076e+01 -4.753560e+01 79 61 16
-8.340559e+00 -5.057450e+00 4.855832e+00 161 154 146
-8.896727e+00 -5.021875e+00 4.583876e+00 169 158 150
-9.051287e+00 -4.958300e+00 4.538151e+00 160 152 139
-9.426218e+00 -4.658129e+00 4.439629e+00 183 176 169
-8.698117e+00 -2.863187e+00 5.252260e+00 145 136 130
1.704912e+01 1.384863e+01 -4.578883e+01 190 162 105
-8.002998e+00 -3.211815e+00 5.486660e+00 154 150 144
-3.482562e+00 4.447045e-01 2.521715e+00 126 115 113
-4.871082e+01 2.980135e+01 -1.030486e+02 238 226 201
-3.613933e+00 4.293724e-01 2.617357e+00 133 117 120
-5.125584e+01 2.992058e+01 -9.879409e+01 247 216 175
-4.823388e+01 3.112970e+01 -1.033763e+02 230 212 192
-4.894354e+01 3.088434e+01 -1.024979e+02 127 125 121
-4.596907e+01 3.313542e+01 -1.070399e+02 131 116 109
-4.902457e+01 3.325648e+01 -1.018805e+02 124 124 116
-4.902457e+01 3.325648e+01 -1.018805e+02 124 124 116
-2.599308e+01 3.982856e-01 -2.877509e+00 167 191 210
-2.397570e+01 -2.584969e+00 -1.946865e+00 171 179 188
-1.961032e+01 1.937502e+01 -6.895373e+01 128 128 95
-1.117722e+01 -3.521139e+00 3.995446e+00 145 158 171
-2.104645e+01 -2.623971e+00 -3.718343e-01 114 130 141
-5.213651e+01 3.490745e+01 -9.548644e+01 169 157 124
-5.213651e+01 3.490745e+01 -9.548644e+01 169 157 124
-5.174010e+01 3.622098e+01 -9.612398e+01 218 210 167
-2.058383e+01 1.709999e+01 -6.688019e+01 212 218 183
-2.058588e+01 1.710052e+01 -6.688144e+01 212 218 183
-5.670877e+01 3.007539e+01 -8.932400e+01 250 231 198
-4.670854e+01 3.784462e+01 -1.046294e+02 246 221 191
-4.894507e+01 3.600140e+01 -1.012408e+02 225 215 194
-4.591842e+01 3.136449e+01 -1.075241e+02 137 122 115
-5.259702e+01 3.126012e+01 -9.592942e+01 237 204 170
-4.832146e+01 3.412684e+01 -1.025173e+02 228 216 189
-4.008188e+01 3.572978e+01 -1.045886e+02 207 204 185
-4.859086e+01 3.714183e+01 -1.014084e+02 165 150 130
-8.583060e+00 -3.750953e+00 4.983778e+00 174 183 189
3.664704e+01 8.777562e+00 -2.973268e+01 168 164 87
-2.368056e+01 -1.866078e+00 -1.665260e+00 30 27 28
-2.271574e+01 1.635186e+00 -7.555376e-01 203 225 246
-2.272432e+01 -2.832807e+00 -1.371301e+00 241 240 241
3.355224e+01 1.393194e+01 -4.045327e+01 192 192 114
-7.790759e+00 -4.374838e+00 5.284992e+00 146 154 158
-8.360299e+00 -3.969213e+00 5.169912e+00 99 100 94
-2.794912e+01 -1.581791e-01 -3.226630e+00 118 137 153
4.189390e+01 8.467699e+00 -2.729263e+01 140 151 80
4.091456e+01 1.966360e+01 -5.459699e+01 225 219 203
4.275385e+01 1.733132e+01 -3.177314e+01 84 83 79
-2.328528e+01 -2.417597e+00 -1.509066e+00 187 195 206
-2.328528e+01 -2.417597e+00 -1.509066e+00 187 195 206
-2.129631e+01 -2.573205e+00 -4.520070e-01 131 145 158
-2.228586e+01 -1.542033e+00 -4.428972e+00 27 27 37
3.828988e+01 8.554193e+00 -2.875146e+01 126 139 65
3.616160e+01 9.117174e+00 -3.047815e+01 76 73 37
3.616160e+01 9.117174e+00 -3.047815e+01 76 73 37
3.884165e+01 9.092170e+00 -2.900911e+01 40 35 34
3.828523e+01 1.110659e+01 -3.275672e+01 165 162 78
3.841180e+01 1.140390e+01 -3.225345e+01 73 70 50
3.928608e+01 1.625988e+01 -4.439863e+01 237 236 216
5.464520e+01 1.791568e+01 -4.945364e+01 224 220 206
-9.094534e+00 -4.063503e+00 4.821200e+00 172 177 181
-8.493168e+00 -3.823693e+00 5.135162e+00 174 182 194
-2.566223e+01 1.703635e+00 -2.030880e+00 57 76 99
-2.566223e+01 1.703635e+00 -2.030880e+00 57 76 99
3.451122e+01 6.911053e+00 -2.757133e+01 100 114 49
-1.536548e+01 1.564051e+01 -6.209351e+01 184 179 115
-1.535145e+01 1.630384e+01 -6.347617e+01 212 197 137
4.031074e+01 8.234656e+00 -2.747882e+01 140 142 81
3.905229e+01 1.118905e+01 -3.185301e+01 62 67 47
5.682010e+01 1.775911e+01 -4.806008e+01 235 232 214
-8.232216e+00 -3.062390e+00 5.321498e+00 29 31 34
-1.719644e+01 -3.351728e-01 2.129938e+00 158 168 190
3.745952e+01 5.631520e+00 -2.440889e+01 74 73 65
3.427550e+01 7.186958e+00 -2.870446e+01 91 92 62
-1.731335e+01 1.676239e+01 -6.544366e+01 124 125 68
-1.593937e+01 1.666946e+01 -6.408727e+01 196 184 134
2.899207e+01 9.132093e+00 -3.391495e+01 172 182 98
3.056850e+01 9.101333e+00 -3.252672e+01 110 109 57
3.910284e+01 8.461186e+00 -2.869159e+01 96 85 61
-1.246872e+01 1.727356e+01 -6.349524e+01 197 190 120
-1.676963e+01 1.820786e+01 -6.665194e+01 228 210 165
4.116951e+01 8.340399e+00 -2.697375e+01 121 140 58
4.148351e+01 8.680687e+00 -2.748189e+01 68 47 41
4.036723e+01 8.914862e+00 -2.756943e+01 48 37 28
3.533162e+01 1.048204e+01 -3.308983e+01 181 169 102
4.029888e+01 9.321926e+00 -2.727999e+01 49 50 37
3.222210e+01 1.131843e+01 -3.557931e+01 113 121 60
3.708463e+01 1.058234e+01 -3.229061e+01 79 82 39
4.194027e+01 1.792721e+01 -5.205852e+01 95 91 58
3.608480e+01 5.753262e+00 -2.536875e+01 107 103 95
3.616271e+01 5.927512e+00 -2.589575e+01 105 102 68
3.342048e+01 6.529691e+00 -2.783173e+01 171 175 107
-1.558613e+01 1.578395e+01 -6.287060e+01 135 136 76
3.242761e+01 7.860460e+00 -3.039764e+01 123 130 70
3.913243e+01 7.359220e+00 -2.710847e+01 74 69 43
-1.358326e+01 1.621808e+01 -6.247932e+01 190 180 113
-1.602810e+01 1.708847e+01 -6.491534e+01 141 130 77
3.603927e+01 8.623052e+00 -3.085555e+01 116 107 66
-1.539213e+01 1.772513e+01 -6.545124e+01 102 81 40
-1.707333e+01 1.809141e+01 -6.674557e+01 116 107 66
3.776659e+01 9.181067e+00 -3.001515e+01 71 69 46
3.373037e+01 1.018023e+01 -3.313783e+01 203 203 92
3.373037e+01 1.018023e+01 -3.313783e+01 203 203 92
3.385489e+01 1.088741e+01 -3.420561e+01 204 174 130
3.883771e+01 1.152969e+01 -3.273185e+01 82 76 58
3.759255e+01 1.210276e+01 -3.437694e+01 193 182 94
4.076652e+01 1.093098e+01 -2.794039e+01 178 168 135
5.972372e+01 1.662700e+01 -4.332836e+01 80 81 58
-2.413393e+01 -2.420195e+00 -2.059630e+00 121 111 97
-8.257258e+00 -3.971337e+00 5.263455e+00 181 187 175
-7.843010e+00 -3.594551e+00 5.306404e+00 81 90 94
-2.484267e+01 -9.161450e-01 -1.515904e+00 159 171 156
-2.245347e+01 2.826097e-01 -2.329444e-01 115 120 126
3.297864e+01 7.247202e+00 -2.950394e+01 192 185 130
-1.749072e+01 1.604738e+01 -6.446348e+01 205 204 118
-1.491881e+01 1.571404e+01 -6.248115e+01 197 196 117
2.882266e+01 8.554346e+00 -3.307187e+01 62 60 29
3.785188e+01 8.205510e+00 -2.883968e+01 86 82 50
3.298337e+01 9.115225e+00 -3.239016e+01 209 200 122
-1.728046e+01 1.793261e+01 -6.668518e+01 217 198 147
4.119228e+01 8.442731e+00 -2.770633e+01 60 43 33
-1.332107e+01 1.757789e+01 -6.415594e+01 200 194 132
3.633016e+01 9.234964e+00 -3.053324e+01 84 89 45
-1.416651e+01 1.828947e+01 -6.587441e+01 138 127 61
4.027313e+01 9.064549e+00 -2.783938e+01 184 192 142
3.933681e+01 9.669483e+00 -2.813507e+01 48 47 34
3.912728e+01 9.774612e+00 -2.834402e+01 208 211 171
3.912728e+01 9.774612e+00 -2.834402e+01 208 211 171
2.849983e+01 1.205835e+01 -3.783584e+01 111 99 34
2.849983e+01 1.205835e+01 -3.783584e+01 111 99 34
4.118095e+01 1.061238e+01 -2.768243e+01 215 220 157
4.004948e+01 1.078330e+01 -2.817946e+01 198 220 169
4.139448e+01 1.069261e+01 -2.764293e+01 87 69 31
5.712859e+01 1.761925e+01 -4.760494e+01 97 100 76
1.031586e+01 2.059025e+01 -5.059196e+01 199 188 157
1.339074e+01 3.030186e+01 -7.332434e+01 138 126 130
-2.355193e+01 -3.700729e+00 -2.049059e+00 206 208 208
-2.267578e+01 -3.366138e+00 -1.695074e+00 247 248 237
-2.299805e+01 -2.758375e+00 -1.446514e+00 18 21 58
2.803303e+01 8.455460e+00 -3.347952e+01 141 127 73
3.980017e+01 7.129187e+00 -2.638676e+01 122 94 65
2.985258e+01 9.168703e+00 -3.349347e+01 210 209 123
-1.704515e+01 1.789297e+01 -6.686523e+01 229 215 158
-1.690216e+01 1.853408e+01 -6.705715e+01 241 221 185
2.845979e+01 1.123370e+01 -3.703235e+01 188 173 121
3.950718e+01 9.261852e+00 -2.826524e+01 169 174 146
3.244809e+01 1.093579e+01 -3.498309e+01 194 184 118
2.990109e+01 1.157501e+01 -3.658807e+01 93 95 37
2.820262e+01 1.208167e+01 -3.771143e+01 115 107 39
3.406923e+01 1.194246e+01 -3.575355e+01 105 103 52
3.919048e+01 1.195347e+01 -3.300975e+01 78 68 46
5.720374e+01 1.785355e+01 -4.765711e+01 228 230 206
5.991258e+01 1.736435e+01 -4.358048e+01 105 103 70
1.334971e+01 2.998075e+01 -7.291089e+01 241 233 225
-1.215757e+01 -4.212837e+00 2.837809e+00 13 13 13
-8.582433e+00 -3.806869e+00 5.159049e+00 151 160 174
-1.136795e+01 -2.963526e+00 4.245697e+00 135 148 156
-2.445171e+01 -8.010258e-01 -1.729987e+00 22 23 22
-3.106513e+00 -3.610635e+00 5.385326e+00 248 253 249
-7.011914e+00 -2.400766e+00 6.214994e+00 230 240 249
-5.424490e+01 2.993094e+01 -9.631970e+01 255 249 208
-6.626221e+00 -4.805223e+00 4.595708e+00 14 14 14
-1.082952e+01 -3.767821e+00 3.994210e+00 152 152 141
-8.583981e+01 2.560931e+01 -9.613958e+01 244 175 142
-8.583981e+01 2.560931e+01 -9.613958e+01 244 175 142
-1.866524e+01 3.041208e+01 -9.250707e+01 175 175 161
-5.031039e+00 -7.436662e+00 1.192023e+01 173 170 170
-1.723687e+00 -3.275631e+00 3.741881e+00 158 169 161
-9.621152e+00 -3.674816e+00 4.619938e+00 177 170 158
-2.772852e+00 -1.720669e+00 4.822844e+00 254 254 254
-8.805849e+01 2.360188e+01 -9.772467e+01 210 203 169
-8.348080e+01 2.449977e+01 -9.496790e+01 93 68 64
-8.934785e+01 2.693850e+01 -9.800072e+01 109 69 66
-8.934785e+01 2.693850e+01 -9.800072e+01 109 69 66
-9.114908e+01 3.377803e+01 -9.660951e+01 118 72 64
-9.555723e+00 -4.237160e+00 4.445403e+00 199 197 193
-9.496828e+00 -2.967646e+00 4.819090e+00 54 52 53
-2.628080e+00 -1.268219e+00 5.025778e+00 210 215 218
6.530907e+00 1.324621e+01 -4.947087e+01 234 232 117
-8.595589e+01 2.240835e+01 -9.650711e+01 241 236 216
-8.541085e+01 2.341631e+01 -9.593683e+01 108 107 102
-8.227441e+01 2.336668e+01 -9.399511e+01 90 91 79
-8.740693e+01 2.457658e+01 -9.722223e+01 91 79 72
-9.005784e+01 2.581910e+01 -9.826193e+01 240 179 149
-9.092960e+01 2.725032e+01 -9.860194e+01 234 164 131
-8.980559e+01 2.804105e+01 -9.751966e+01 117 77 66
-9.080997e+01 3.101782e+01 -9.745458e+01 112 67 62
-8.913477e+01 3.103522e+01 -9.622689e+01 246 185 148
-8.944845e+00 -4.735641e+00 4.624347e+00 22 21 28
-4.716129e+00 -2.167303e+00 6.320787e+00 254 253 253
-2.401823e+01 -1.939829e+00 -1.843111e+00 233 234 223
5.816934e+00 1.084762e+01 -4.644935e+01 232 233 146
-8.498201e+01 2.101357e+01 -9.613191e+01 237 237 220
-8.430283e+01 2.184727e+01 -9.569712e+01 134 134 136
-8.376920e+01 2.353886e+01 -9.474307e+01 201 193 156
-8.893772e+01 2.977945e+01 -9.656564e+01 241 170 135
-5.110388e+01 3.269738e+01 -9.711171e+01 250 216 173
-8.370264e+01 3.169347e+01 -9.297042e+01 237 173 143
-8.759463e+01 3.459623e+01 -9.464166e+01 140 104 87
-8.355867e+01 3.373735e+01 -9.143703e+01 234 176 142
-7.876792e+00 -5.571713e+00 4.839478e+00 21 23 22
-9.100551e+00 -3.607624e+00 4.928624e+00 161 171 172
-8.081023e+00 -3.231036e+00 5.426719e+00 31 30 36
-2.357857e+01 -3.408985e+00 -1.979293e+00 47 42 50
-4.115558e+00 -2.259197e+00 6.418746e+00 173 168 167
-4.111921e+00 -2.266641e+00 6.475035e+00 173 168 167
7.331447e+00 8.906813e+00 -4.273701e+01 239 244 241
-1.565729e+00 1.116466e+01 -5.060635e+01 255 252 207
-6.255440e-02 1.142082e+01 -4.999544e+01 79 68 44
-3.550459e+00 1.183923e+01 -5.249864e+01 216 225 132
-3.141547e+00 1.194050e+01 -5.200195e+01 103 109 67
-3.710515e+00 1.243220e+01 -5.328107e+01 143 136 95
-3.409907e+00 1.261111e+01 -5.287439e+01 97 107 64
-4.295747e+00 1.334293e+01 -5.506523e+01 229 227 139
-8.705192e+01 2.062338e+01 -9.772868e+01 254 252 241
-8.746261e+01 2.118525e+01 -9.747876e+01 156 154 143
9.387953e+00 1.398954e+01 -4.950035e+01 183 161 102
9.402700e+00 1.584751e+01 -5.307359e+01 212 219 120
-9.065596e+01 2.524967e+01 -9.941547e+01 117 89 72
-2.053880e+01 2.655391e+01 -9.454623e+01 255 254 253
3.907372e+00 2.439313e+01 -8.272163e+01 247 247 234
-5.103767e+01 2.935348e+01 -9.857248e+01 227 191 157
-5.053759e+01 3.006696e+01 -1.002957e+02 244 226 201
-8.541240e+01 2.884586e+01 -9.478632e+01 210 146 116
-8.344967e+01 3.029652e+01 -9.317738e+01 235 170 137
-8.616940e+01 3.300559e+01 -9.398089e+01 225 160 129
-8.801443e+01 3.379483e+01 -9.502944e+01 238 165 133
-8.623736e+01 3.476340e+01 -9.342453e+01 213 156 124
-8.530981e+00 -4.450308e+00 5.004885e+00 144 153 157
-2.106542e+01 -2.962128e+00 -8.223310e-01 58 62 62
5.924643e+00 9.090960e+00 -4.360727e+01 243 243 240
5.203167e+00 9.269211e+00 -4.360600e+01 144 136 108
1.979224e+00 9.669373e+00 -4.573520e+01 130 126 87
5.136571e+00 9.637046e+00 -4.417952e+01 226 218 147
-3.924327e-01 1.087853e+01 -4.963600e+01 61 50 33
2.343334e-01 1.110902e+01 -4.955492e+01 214 213 131
-1.328389e+00 1.157618e+01 -5.067089e+01 95 65 45
6.538261e+00 1.136925e+01 -4.688644e+01 179 189 103
-4.635626e+00 1.353188e+01 -5.511897e+01 186 183 123
2.360556e+00 1.400664e+01 -5.236138e+01 167 170 93
-8.841399e+01 2.306117e+01 -9.781526e+01 232 223 196
-8.570849e+01 2.414359e+01 -9.604822e+01 176 153 127
-8.543104e+01 2.462993e+01 -9.607851e+01 116 80 67
-8.081018e+01 2.406781e+01 -9.324129e+01 179 132 103
-7.988594e+01 2.454147e+01 -9.268586e+01 245 198 161
-8.774919e+01 2.690303e+01 -9.651127e+01 224 155 127
-8.324203e+01 2.855986e+01 -9.364455e+01 233 163 133
-8.817102e+01 3.050810e+01 -9.601096e+01 197 125 107
-4.654993e+01 3.280145e+01 -1.050545e+02 235 212 188
-8.257539e+01 2.995697e+01 -9.278192e+01 146 93 77
-2.127400e+01 3.083140e+01 -9.388711e+01 194 189 176
-4.815584e+01 3.333738e+01 -1.034473e+02 144 131 115
-9.045697e+01 3.406662e+01 -9.636659e+01 149 92 84
-8.651994e+01 3.392487e+01 -9.402846e+01 209 144 120
-9.060193e+01 3.525691e+01 -9.604699e+01 138 87 76
-6.518481e+01 3.167175e+01 -8.244188e+01 224 177 145
-6.312168e+01 3.152367e+01 -8.049935e+01 242 183 149
-1.013770e+01 -5.412513e+00 3.499094e+00 105 102 95
-8.095064e+00 -4.796805e+00 4.924824e+00 64 68 98
-9.271083e+00 -4.509930e+00 4.520133e+00 105 88 88
-2.182861e+01 -3.190015e+00 -1.033143e+00 109 111 106
-2.100986e+01 -2.725130e+00 -3.270208e-01 36 44 47
-2.277930e+01 -2.567204e+00 -1.396226e+00 161 159 158
-1.174338e+01 -2.299458e+00 4.172112e+00 244 250 243
-2.292976e+01 -1.847138e+00 -1.268122e+00 205 215 220
4.445640e+00 2.238611e+00 -2.153225e+01 166 163 150
-1.634638e+01 -3.400358e-01 2.464033e+00 216 222 226
6.495994e+00 9.005100e+00 -4.303271e+01 240 237 230
6.136198e+00 9.222421e+00 -4.346631e+01 181 163 130
4.617102e+00 9.410632e+00 -4.438938e+01 187 179 130
3.400139e+00 9.524101e+00 -4.514504e+01 213 197 142
-8.631126e+00 1.812495e+00 -3.897795e-01 42 44 39
2.660790e+00 1.156806e+01 -4.869192e+01 254 244 186
-4.018469e+00 1.206515e+01 -5.253885e+01 204 211 121
6.571126e+00 1.170861e+01 -4.728683e+01 229 229 135
-8.977764e+01 2.056933e+01 -9.957891e+01 175 173 169
-3.707011e+00 1.295158e+01 -5.409934e+01 244 237 163
-8.266626e-02 1.260490e+01 -5.098803e+01 106 91 47
-8.794720e+01 2.122536e+01 -9.813356e+01 154 152 138
-1.827892e+00 1.356540e+01 -5.207737e+01 92 82 55
3.249822e+00 1.460146e+01 -5.301626e+01 230 224 167
-8.397037e+01 2.319719e+01 -9.505143e+01 203 196 170
-1.243753e+01 1.810845e+01 -6.479433e+01 245 238 169
-1.449364e+01 1.822236e+01 -6.557076e+01 155 136 57
-1.448682e+01 2.403357e+01 -8.583857e+01 212 208 135
-1.556419e+01 2.436754e+01 -8.721462e+01 163 159 95
3.158034e+00 2.421242e+01 -8.125900e+01 252 249 239
-8.557888e+01 2.751380e+01 -9.565165e+01 227 163 128
-4.999227e+01 3.003261e+01 -1.007840e+02 123 113 112
-8.245967e+01 2.834801e+01 -9.316644e+01 164 101 84
-8.156468e+01 2.840738e+01 -9.263330e+01 249 184 153
-8.262186e+01 2.887802e+01 -9.332120e+01 237 177 145
-7.131385e+01 2.732144e+01 -8.704567e+01 237 168 146
-2.011184e+01 2.284192e+01 -6.859224e+01 142 137 108
-8.013076e+01 2.921762e+01 -9.180301e+01 244 185 155
-8.087954e+01 2.969389e+01 -9.185066e+01 157 97 85
-5.066346e+01 3.197663e+01 -9.895764e+01 130 108 93
-5.066346e+01 3.197663e+01 -9.895764e+01 130 108 93
-8.965149e+01 3.257033e+01 -9.633129e+01 229 168 139
-8.801365e+01 3.225118e+01 -9.528636e+01 237 166 138
-8.801365e+01 3.225118e+01 -9.528636e+01 237 166 138
-9.022085e+01 3.281072e+01 -9.657453e+01 133 78 73
-8.970617e+01 3.532430e+01 -9.562886e+01 217 157 129
-5.204191e+01 3.545555e+01 -9.660452e+01 224 214 169
-8.804873e+01 3.590449e+01 -9.445967e+01 174 114 90
-7.233480e+00 -4.848922e+00 5.437416e+00 90 90 84
-8.908518e+00 -4.211336e+00 4.816254e+00 25 24 41
-2.424768e+01 -2.737088e+00 -2.172969e+00 255 255 251
-2.518781e+00 -1.796903e+00 4.699595e+00 42 46 53
-2.597749e+00 -1.493086e+00 4.894262e+00 48 46 45
-1.720128e+01 -3.513881e-01 2.124050e+00 136 146 167
9.078005e+00 8.826772e+00 -4.224389e+01 239 240 237
6.849931e+00 9.280275e+00 -4.336346e+01 232 227 154
-1.920743e+00 1.131977e+01 -5.065731e+01 65 48 37
5.501598e+00 1.092172e+01 -4.666404e+01 217 217 116
-7.247336e+00 1.240529e+01 -5.499177e+01 255 223 149
-9.068610e+01 1.999255e+01 -9.992876e+01 226 220 197
3.830319e+00 1.218473e+01 -4.959375e+01 244 245 153
3.176133e+00 1.222915e+01 -4.968247e+01 237 233 146
-9.044800e+00 1.326630e+01 -5.670210e+01 228 229 150
5.936430e+00 1.197329e+01 -4.754525e+01 226 230 150
-8.558320e+01 2.064117e+01 -9.692337e+01 245 246 231
-2.515000e+00 1.284625e+01 -5.162091e+01 166 171 118
-2.511375e+00 1.285880e+01 -5.171473e+01 166 171 118
-9.545688e+00 1.436245e+01 -5.852479e+01 151 135 84
-9.545688e+00 1.436245e+01 -5.852479e+01 151 135 84
-1.047521e+00 1.327427e+01 -5.074645e+01 222 233 177
2.482641e+00 1.374397e+01 -5.222827e+01 228 234 125
-1.343113e+01 1.573616e+01 -6.193712e+01 245 239 173
6.967414e+00 1.389741e+01 -5.019715e+01 231 229 138
4.149741e+00 1.454920e+01 -5.244282e+01 241 238 146
-1.358001e+01 1.630567e+01 -6.281571e+01 229 218 136
9.375110e+00 1.417249e+01 -4.976776e+01 166 154 92
-1.493366e-02 1.520482e+01 -5.498687e+01 187 178 120
1.883604e+00 1.533162e+01 -5.492212e+01 225 227 133
-8.336400e+01 2.336577e+01 -9.484489e+01 174 169 138
-9.019965e+01 2.428592e+01 -9.856411e+01 171 163 132
8.045048e+00 1.540191e+01 -5.261013e+01 245 233 157
-1.533216e+01 1.772763e+01 -6.532290e+01 139 106 68
-1.530614e+01 1.768407e+01 -6.513064e+01 139 106 68
-8.772557e+01 2.438103e+01 -9.744290e+01 73 66 56
-1.039010e+01 1.730082e+01 -6.267780e+01 250 229 166
-1.333248e+01 1.763476e+01 -6.435308e+01 238 234 164
-1.026875e+01 1.768472e+01 -6.297015e+01 203 194 105
-6.001716e+01 2.176504e+01 -6.241773e+01 194 182 131
-8.130107e+01 2.994662e+01 -9.163428e+01 224 156 130
-5.118940e+01 3.219625e+01 -9.839383e+01 170 139 104
-5.118940e+01 3.219625e+01 -9.839383e+01 170 139 104
-9.008371e+01 3.201098e+01 -9.652169e+01 162 104 89
-8.903008e+01 3.239086e+01 -9.597927e+01 174 114 88
-8.903008e+01 3.239086e+01 -9.597927e+01 174 114 88
-6.000474e+01 2.308141e+01 -6.181171e+01 236 228 172
-5.100119e+01 3.370789e+01 -9.813140e+01 136 116 92
-5.463899e+01 3.291243e+01 -9.227650e+01 114 104 77
-8.882360e+01 3.463226e+01 -9.526488e+01 221 157 127
-6.015586e+01 2.437772e+01 -6.133906e+01 199 188 143
-2.183077e+01 2.704193e+01 -6.865404e+01 135 126 117
-4.585673e+01 3.868852e+01 -1.063523e+02 255 253 252
-5.139818e+01 3.634806e+01 -9.726267e+01 248 222 189
-8.724322e+01 3.653249e+01 -9.357925e+01 244 190 159
-7.872484e+00 -5.399102e+00 5.051360e+00 90 85 79
-8.773714e+00 -4.909537e+00 4.610792e+00 245 244 244
-8.606008e+00 -4.829397e+00 4.538323e+00 139 130 123
-8.662696e+00 -3.700870e+00 5.047440e+00 57 58 77
-1.058906e+01 -2.660470e+00 4.612100e+00 106 108 103
3.026402e+00 1.196163e+00 -1.839757e+01 254 253 235
-2.568400e+00 -1.434272e+00 4.916156e+00 206 214 190
-2.568400e+00 -1.434272e+00 4.916156e+00 206 214 190
-4.414935e+00 -1.477040e+00 6.505123e+00 63 70 97
-1.704244e+01 -3.696717e-01 2.088307e+00 241 248 238
2.898869e+00 8.499043e+00 -4.410775e+01 73 64 60
-1.228081e+01 1.452227e-01 3.967267e+00 254 254 248
8.471365e+00 8.732292e+00 -4.170934e+01 244 245 242
3.095657e+00 9.310172e+00 -4.478536e+01 245 249 243
-2.940551e+00 1.126286e+01 -5.113829e+01 255 226 149
-6.483172e+00 1.170547e+01 -5.313486e+01 255 255 202
-1.908714e+00 1.148971e+01 -5.071411e+01 215 210 172
-1.371929e+00 1.156509e+01 -5.080575e+01 82 53 41
-9.327509e-01 1.169196e+01 -5.045235e+01 103 80 67
-1.407967e+00 1.177716e+01 -5.051353e+01 77 53 31
5.070429e+00 1.157601e+01 -4.772780e+01 199 181 111
5.070429e+00 1.157601e+01 -4.772780e+01 199 181 111
-9.464646e+00 1.283131e+01 -5.647411e+01 255 248 181
8.531204e+00 1.162004e+01 -4.632865e+01 175 157 81
-2.123259e+00 1.232198e+01 -5.116234e+01 47 45 11
3.600198e-01 1.268771e+01 -5.117468e+01 245 233 157
5.629984e+00 1.254520e+01 -4.893436e+01 250 245 142
5.960132e+00 1.264034e+01 -4.885633e+01 168 153 49
8.519396e+00 1.281036e+01 -4.809747e+01 240 228 129
-9.416571e+00 1.449491e+01 -5.864494e+01 254 223 160
-6.878945e+00 1.441124e+01 -5.730794e+01 166 157 91
-1.572313e+00 1.373525e+01 -5.232883e+01 254 252 179
8.289956e-01 1.409533e+01 -5.345641e+01 182 187 102
-1.366744e+01 1.727263e+01 -6.397625e+01 237 226 161
-1.581297e+01 1.818047e+01 -6.581854e+01 236 226 144
-1.461473e+01 1.904800e+01 -6.764215e+01 252 248 170
-5.303217e+01 2.876035e+01 -9.597443e+01 253 253 249
-8.621292e+01 2.906545e+01 -9.521369e+01 184 124 95
-8.606848e+01 2.899986e+01 -9.498326e+01 184 124 95
-5.631238e+01 2.782806e+01 -8.999019e+01 255 243 202
-5.631238e+01 2.782806e+01 -8.999019e+01 255 243 202
-6.022508e+01 2.110821e+01 -6.263477e+01 207 196 155
-6.043098e+01 2.131853e+01 -6.262665e+01 250 238 204
-5.066916e+01 3.126974e+01 -9.961249e+01 255 233 205
-6.092844e+01 2.198470e+01 -6.261741e+01 254 242 203
