ply
format ascii 1.0
element vertex 919
property float x
property float y
property float z
property uchar diffuse_red
property uchar diffuse_green
property uchar diffuse_blue
end_header
-1.741026e+00 -2.042110e+00 1.790138e+00 238 239 237
-5.184368e+00 1.496147e+00 -3.014691e+00 154 201 243
-9.965732e-01 -1.314833e+00 -8.607457e-01 166 93 62
-2.042403e+00 -2.347299e+00 2.350619e+00 161 157 167
-2.426622e+00 -2.779481e+00 2.534220e+00 21 21 21
-2.426622e+00 -2.779481e+00 2.534220e+00 21 21 21
-1.375642e+00 -1.873110e+00 -1.483548e+00 167 180 186
-5.973963e+00 -1.791582e+00 -9.172986e+00 44 51 66
-2.687775e+00 -1.072309e+00 2.236573e+00 195 197 182
-8.436843e+01 -6.335409e+00 -1.221836e+00 164 60 63
-5.565095e+01 7.171133e+00 -4.679700e+01 226 215 181
-1.611450e+00 -1.971576e+00 -4.717293e-01 17 19 18
-1.576961e+00 -1.962856e+00 -5.024777e-01 17 19 18
-1.544754e+00 -1.579640e+00 1.047943e+00 106 106 111
-9.002642e+01 -9.466699e+00 1.018903e+01 183 173 148
-8.671847e+01 -7.557595e+00 4.763951e+00 105 107 92
-9.187376e+01 -1.030024e+01 1.300512e+01 184 175 146
-8.446367e+01 -6.709431e+00 3.472742e-01 243 113 99
-1.348863e+00 -1.804805e+00 -8.009886e-01 255 253 254
-8.689964e+01 -8.202348e+00 5.622856e+00 152 146 124
-8.490354e+01 -7.244499e+00 2.012308e+00 255 128 115
-7.975605e+00 1.672034e+00 -1.920219e+00 130 164 199
-3.753486e+00 -3.344683e+00 3.955414e+00 178 190 190
-1.315636e+00 -3.603560e-01 -1.315611e+01 239 240 239
-1.319110e+00 -3.624736e-01 -1.315964e+01 239 240 239
-1.330522e+00 -1.807177e+00 -1.235967e+00 119 125 124
-3.344948e+00 -1.325930e+00 3.468783e+00 44 46 59
-1.871694e+00 -3.805602e-01 2.767878e-01 29 29 43
-1.849957e+00 -3.746147e-01 2.984359e-01 29 29 43
-8.340965e+01 -7.662484e+00 2.092085e+00 103 99 81
-9.136030e+01 -9.983123e+00 1.223819e+01 108 106 91
-9.121981e+01 -9.751119e+00 1.174749e+01 166 158 134
-8.646887e+00 2.194847e+00 -4.784677e+00 163 208 250
-1.327535e+01 -8.271576e+00 1.376233e+01 194 166 137
-2.122134e+00 -7.524336e-01 -1.204948e+01 219 219 214
-1.947192e+00 -1.774281e+00 2.201540e+00 90 94 106
-2.557548e+00 -1.105331e+00 2.155497e+00 23 23 31
-2.420517e+00 -9.809253e-01 1.774417e+00 21 27 35
-2.575902e+00 -9.095153e-01 2.146759e+00 34 36 49
-2.386780e+00 -7.732924e-01 1.654736e+00 25 29 37
-1.728661e+00 -2.657077e-01 2.438528e-02 141 136 136
-8.656178e+01 -7.873535e+00 3.588966e+00 192 178 149
-8.511176e+01 -7.082113e+00 4.173107e-01 235 124 110
-8.488722e+01 -6.907612e+00 -7.363019e-02 246 120 106
-1.417560e+02 -9.179863e+00 1.560409e+00 179 186 114
-1.268510e+01 3.204374e+00 -1.637900e+00 55 90 121
-3.147990e+02 4.434137e+01 -2.257124e+02 64 63 74
2.852908e+00 -2.730261e+00 -4.268824e+00 247 249 247
2.845426e+00 -2.731515e+00 -4.272855e+00 247 249 247
-1.974735e+00 -2.667088e+00 2.085771e+00 241 241 237
-1.813696e+00 -2.573785e+00 1.738359e+00 238 240 237
-4.462081e+00 -3.535087e+00 4.657604e+00 74 79 81
-2.757271e+00 -2.760975e+00 2.537329e+00 18 19 21
-1.887201e+00 -2.315745e+00 1.848729e+00 242 242 244
-1.561114e+00 -1.440936e+00 1.041619e+00 81 82 93
-3.298210e+00 -1.740583e+00 3.374445e+00 255 254 254
-1.784388e+00 -6.593939e-01 1.271370e-01 71 69 90
-3.315259e+00 -1.413925e+00 3.558726e+00 254 254 255
-9.188564e+01 -9.696199e+00 7.188562e+00 85 79 71
-9.370496e+01 -1.013895e+01 1.424633e+01 72 72 60
-9.578601e+01 -1.063495e+01 1.608386e+01 114 107 81
-9.229439e+01 -8.559540e+00 9.290963e+00 203 190 146
-8.632461e+01 -6.371920e+00 1.062679e+00 150 131 92
-8.062927e+00 2.023043e+00 -3.043068e+00 27 35 64
-8.625883e+01 -5.388030e+00 -2.544169e+00 108 100 68
-9.181677e+01 -6.419647e+00 1.495486e+00 166 155 110
-1.288343e+02 -1.138139e+01 1.582825e+01 253 253 253
-5.404764e+01 7.990202e+00 -5.110322e+01 197 186 155
-3.094376e+02 4.580705e+01 -2.228308e+02 115 116 114
1.163810e-01 -5.239918e+00 4.356056e+00 190 174 149
-4.416764e+00 -3.112395e+00 2.715979e+00 111 117 115
-1.612370e+00 -2.024998e+00 1.321119e+00 253 251 242
-4.720940e+00 -2.189974e+00 5.132806e+00 151 149 152
-1.753136e+01 5.199182e-01 -1.939796e+01 60 67 77
-1.796657e+01 5.087434e-01 -1.920714e+01 150 153 116
-1.818865e+01 4.543540e-01 -1.908769e+01 203 203 183
-1.466895e+01 2.172848e+00 -2.468412e+01 159 155 139
-1.613832e+01 1.607623e+00 -2.270026e+01 121 120 118
-1.436156e+01 2.350341e+00 -2.529035e+01 164 164 161
-9.370377e+01 -1.138542e+01 1.523715e+01 38 39 29
-8.858189e+01 -7.716807e+00 5.730563e+00 109 108 74
-8.628453e+01 -5.279004e+00 -3.053950e+00 80 68 45
-8.817187e+00 2.576658e+00 -5.222495e+00 176 196 207
-1.428287e+02 -8.978893e+00 -1.039226e+00 43 44 30
-1.428036e+02 -8.977107e+00 -1.037609e+00 43 44 30
-1.327404e+01 -8.254433e+00 1.366119e+01 26 28 20
-1.888404e+00 -2.622112e+00 1.778294e+00 234 232 223
-1.676047e+00 -2.454987e+00 1.424199e+00 119 116 128
-1.821077e+00 -2.485396e+00 1.694942e+00 119 118 138
-8.576000e-01 -1.774075e-01 -1.402249e+01 219 217 209
-1.119023e+00 -1.290224e+00 -8.516019e-01 224 140 29
-2.502097e+00 -9.046022e-01 1.989943e+00 32 32 62
-1.344286e+00 -9.335910e-02 -1.804549e+00 204 204 194
-1.927506e+01 -1.636465e-01 -1.688465e+01 162 173 169
-1.672837e+01 1.068951e+00 -2.091603e+01 220 217 208
-1.484940e+01 2.126028e+00 -2.461007e+01 193 192 174
-6.313207e+01 -6.942421e+00 2.201771e+00 144 141 133
-2.771466e+01 4.059539e+00 -3.331816e+01 215 216 203
-8.723503e+01 -9.999940e+00 1.044173e+01 57 58 55
-8.595045e+01 -8.416617e+00 4.422355e+00 124 123 67
-9.286272e+01 -1.062454e+01 1.413224e+01 74 71 60
-9.119201e+01 -8.770481e+00 9.252446e+00 136 134 93
-8.953072e+01 -7.842502e+00 6.712463e+00 209 197 140
-8.618718e+01 -6.256127e+00 5.261931e-01 125 96 65
-8.807176e+00 2.591523e+00 -5.072688e+00 122 150 179
-1.431306e+02 -8.900021e+00 -1.454260e+00 49 48 43
-5.667953e+01 7.302830e+00 -4.708386e+01 242 228 202
-6.025451e+01 7.632605e+00 -4.725271e+01 140 157 80
-6.025451e+01 7.632605e+00 -4.725271e+01 140 157 80
-5.707646e+01 9.854864e+00 -5.370851e+01 194 187 132
-4.500884e+00 -3.461901e+00 4.781601e+00 60 61 64
-1.780013e+00 -2.314401e+00 1.587842e+00 242 243 237
-1.658778e+00 -2.026904e+00 1.408902e+00 248 244 243
-1.664636e+00 -2.028800e+00 1.407518e+00 248 244 243
-6.096810e-01 -4.370700e-01 -1.620330e+00 189 197 195
-2.897358e+00 -1.289900e+00 2.347724e+00 117 129 153
-2.224451e+00 -9.090339e-01 1.148585e+00 119 136 155
-2.367647e+00 -9.131336e-01 1.644632e+00 18 18 22
-2.457117e+00 -8.945436e-01 1.910640e+00 38 30 51
-8.834732e+01 -6.761885e+00 2.714622e+00 212 193 152
-3.109075e+02 4.569937e+01 -2.213472e+02 125 114 125
-3.202483e+02 2.022245e+01 -1.232892e+02 167 164 144
-1.802745e+00 -2.518931e+00 1.671497e+00 210 210 179
-2.011323e+00 -2.390681e+00 2.368194e+00 230 218 196
-3.084034e+00 -2.957274e+00 2.804633e+00 14 14 14
-3.388799e+00 -1.860879e+00 3.582447e+00 158 168 178
-2.786837e+00 -1.081910e+00 2.194693e+00 186 186 179
-1.853729e+00 -2.443347e+00 1.725485e+00 193 198 193
-3.270701e+00 -1.344097e+00 3.147167e+00 136 141 138
-3.370889e+00 -2.603130e+00 4.162898e+00 150 80 33
-2.948808e+00 -2.828698e+00 2.630953e+00 15 15 15
-1.783195e+00 -1.676054e+00 1.826629e+00 51 51 49
-1.904008e+00 -2.614459e+00 1.892343e+00 187 180 172
-1.999939e+00 -2.517736e+00 2.063951e+00 198 210 206
-1.960767e+00 -2.033324e+00 2.147367e+00 242 181 170
-1.796269e+00 -1.930260e+00 1.750270e+00 189 119 107
-1.341801e+00 -1.794598e+00 -8.142150e-01 253 255 254
-1.341801e+00 -1.794598e+00 -8.142150e-01 253 255 254
-4.430102e+00 -2.841577e+00 5.121363e+00 128 76 51
-1.625908e+00 -2.456612e+00 1.264708e+00 156 151 145
-1.807745e+00 -2.404994e+00 1.639084e+00 182 189 185
-1.542992e+00 -2.331529e+00 1.108126e+00 72 68 68
-1.542405e+00 -2.331325e+00 1.108746e+00 72 68 68
-1.918690e+00 -2.092477e+00 2.020665e+00 230 216 199
-2.386991e+00 -1.035800e+00 1.663007e+00 40 43 45
-1.767307e+00 -3.305851e-01 1.557031e-01 236 236 225
-2.390164e+00 -8.905597e-01 1.736109e+00 33 29 26
-2.004962e+00 -2.704156e+00 2.090735e+00 225 222 208
-2.066031e+00 -2.576368e+00 2.182313e+00 203 205 202
-1.616088e+00 -2.478037e+00 1.275225e+00 205 201 189
-2.109884e+00 -2.475271e+00 2.359985e+00 228 223 201
-1.790388e+00 -2.419443e+00 1.579886e+00 167 178 172
-1.739470e+00 -2.109322e+00 1.543625e+00 214 204 181
-2.084518e+00 -2.071365e+00 2.419574e+00 229 208 184
-2.087637e+00 -2.070191e+00 2.417472e+00 229 208 184
-2.023054e+00 -2.020407e+00 2.276305e+00 217 202 176
-1.593212e+00 -1.738064e+00 1.419982e+00 89 80 77
-2.493525e+00 -9.957215e-01 1.956547e+00 26 26 27
-1.128491e+01 5.330179e-01 2.270968e+00 56 61 57
-1.931327e+00 -2.667358e+00 1.948760e+00 225 217 207
-1.996183e+00 -2.636917e+00 2.073684e+00 229 229 219
-2.150611e+00 -2.642707e+00 2.384094e+00 207 213 202
-1.801583e+00 -2.587049e+00 1.648376e+00 221 215 201
-1.885351e+00 -2.600599e+00 1.831899e+00 106 97 97
-1.892901e+00 -2.601461e+00 1.830019e+00 106 97 97
-1.764124e+00 -2.561154e+00 1.566372e+00 221 216 204
-1.893354e+00 -2.573050e+00 1.880272e+00 226 225 217
-1.736816e+00 -2.540799e+00 1.502197e+00 213 213 197
-1.856113e+00 -2.555448e+00 1.767563e+00 108 104 100
-1.849131e+00 -2.549536e+00 1.772827e+00 108 104 100
-1.712398e+00 -2.527522e+00 1.451428e+00 212 213 194
-1.761485e+00 -2.533358e+00 1.535204e+00 99 85 90
-1.694979e+00 -2.512007e+00 1.400775e+00 206 204 193
-1.797814e+00 -2.512690e+00 1.669109e+00 221 222 212
-1.908345e+00 -2.500517e+00 1.874638e+00 192 203 196
-1.912081e+00 -2.498393e+00 1.871710e+00 192 203 196
-1.570447e+00 -2.435700e+00 1.109493e+00 211 199 192
-1.553480e+00 -2.435009e+00 1.116495e+00 211 199 192
-1.750166e+00 -2.339021e+00 1.526882e+00 168 176 174
-1.830156e+00 -2.258849e+00 1.709453e+00 218 215 198
-2.015152e+00 -2.247170e+00 2.216923e+00 226 214 194
-2.125463e+00 -2.179369e+00 2.490856e+00 181 108 102
-2.079905e+00 -2.136846e+00 2.391358e+00 177 96 88
-2.065341e+00 -2.121679e+00 2.350525e+00 186 96 88
-2.003295e+00 -2.087582e+00 2.199398e+00 238 211 188
-2.073121e+00 -2.078198e+00 2.383404e+00 181 102 95
-2.072485e+00 -2.078052e+00 2.385122e+00 181 102 95
-2.011755e+00 -2.070261e+00 2.230812e+00 173 92 89
-2.000542e+00 -2.037761e+00 2.215307e+00 231 202 179
-2.000542e+00 -2.037761e+00 2.215307e+00 231 202 179
-1.901732e+00 -2.021961e+00 2.008391e+00 235 204 184
-1.783057e+00 -1.956053e+00 1.710475e+00 167 85 85
-1.860257e+00 -1.964184e+00 1.892258e+00 232 197 179
-1.971838e+00 -1.971692e+00 2.249087e+00 224 223 208
-1.885584e+00 -1.953013e+00 1.915210e+00 177 86 89
-1.957420e+00 -1.955371e+00 2.173914e+00 107 96 92
-1.303825e+00 -1.711918e+00 -1.283145e+00 126 125 115
-1.824050e+00 -1.784838e+00 1.919524e+00 77 70 74
-1.641739e+00 -1.733273e+00 1.463667e+00 120 105 90
-2.454173e+00 -9.472721e-01 1.897659e+00 127 125 119
5.368244e-01 -8.421868e-01 4.584212e+00 60 65 60
-2.050560e+00 -2.692718e+00 2.223743e+00 130 124 118
-2.051246e+00 -2.692612e+00 2.224000e+00 130 124 118
-1.895769e+00 -2.642731e+00 1.853673e+00 225 221 208
-2.037387e+00 -2.666948e+00 2.201600e+00 233 231 223
-2.001232e+00 -2.640224e+00 2.135154e+00 228 231 221
-1.833604e+00 -2.567495e+00 1.711175e+00 104 97 91
-1.801603e+00 -2.561203e+00 1.659211e+00 224 223 213
-1.817379e+00 -2.555575e+00 1.680824e+00 109 104 101
-1.861640e+00 -2.527080e+00 1.791847e+00 228 222 215
-1.728926e+00 -2.497485e+00 1.486815e+00 106 97 95
-1.728926e+00 -2.497485e+00 1.486815e+00 106 97 95
-1.766743e+00 -2.491343e+00 1.590964e+00 223 227 217
-1.650023e+00 -2.460739e+00 1.343645e+00 92 84 84
-1.661333e+00 -2.464475e+00 1.336817e+00 92 84 84
-1.610646e+00 -2.427231e+00 1.247890e+00 214 216 203
-1.849277e+00 -2.450794e+00 1.690224e+00 189 197 193
-1.623660e+00 -2.409892e+00 1.293464e+00 213 215 208
-1.571450e+00 -2.157054e+00 1.170969e+00 98 94 82
-2.103858e+00 -2.164910e+00 2.444277e+00 180 109 100
-2.033553e+00 -2.111601e+00 2.283999e+00 236 206 184
-2.114195e+00 -2.107601e+00 2.488083e+00 173 103 95
-2.114195e+00 -2.107601e+00 2.488083e+00 173 103 95
-2.018931e+00 -2.072718e+00 2.255537e+00 243 210 188
-2.039657e+00 -2.068010e+00 2.295963e+00 242 206 184
-2.084647e+00 -2.064050e+00 2.454777e+00 223 212 183
-1.898290e+00 -2.029275e+00 1.955312e+00 168 94 90
-1.871925e+00 -2.016581e+00 1.903615e+00 159 110 96
-1.870789e+00 -2.017151e+00 1.903922e+00 159 110 96
-1.899921e+00 -2.012308e+00 1.962134e+00 175 101 96
-1.958286e+00 -2.008510e+00 2.120064e+00 169 86 80
-2.005054e+00 -1.980336e+00 2.354244e+00 154 144 128
-1.906985e+00 -1.939234e+00 2.101823e+00 218 210 201
-1.862421e+00 -1.804843e+00 2.061109e+00 210 212 200
-1.710471e+00 -1.750084e+00 1.680470e+00 99 98 95
-1.706817e+00 -1.750903e+00 1.683322e+00 99 98 95
-1.086438e+00 -1.384722e+00 -6.984737e-01 56 47 38
-1.232957e+00 -1.349499e+00 -1.046255e+00 70 52 43
-2.453214e+00 -8.338541e-01 1.868229e+00 34 27 25
-1.819069e+00 -2.710526e-01 2.021082e-01 145 145 140
-1.418389e+00 -1.031554e+00 -1.524846e+00 138 80 22
-1.221376e+01 3.139267e-01 2.470178e+00 73 82 91
-1.744211e+00 -1.963523e+00 -6.336739e-01 25 27 26
-1.253692e+00 -1.415950e+00 -2.297245e+00 225 222 216
-1.229305e+00 -1.433155e+00 -2.285381e+00 225 222 216
-2.024429e+00 -4.577789e-01 -7.932723e-01 189 190 185
-1.683948e+00 -5.776206e-01 2.986406e-02 255 255 255
-2.518021e+00 1.446458e-01 -2.974649e+00 95 82 82
-1.795527e+00 -2.578078e+00 1.833798e+00 231 232 228
-1.323311e+00 -1.325848e+00 -2.175833e+00 17 17 19
-1.951556e+00 -1.901044e+00 2.208904e+00 249 249 250
-1.794010e+00 4.924735e-01 -1.880265e+00 219 217 205
-1.269547e+01 3.209215e+00 -1.627984e+00 55 92 126
-1.992958e+00 -2.647014e+00 1.958731e+00 220 222 219
-1.982699e+00 -2.667060e+00 2.078553e+00 236 237 235
-1.777227e+00 -2.390806e+00 1.507567e+00 106 120 151
-2.119692e+00 -2.353363e+00 2.405985e+00 233 234 220
-2.127348e+00 -2.024946e+00 2.633166e+00 250 250 245
-3.327167e+00 -1.964805e-03 -4.005493e+00 132 135 136
-5.114800e+00 -1.444573e+00 5.084056e+00 38 40 60
-1.881913e+00 6.429796e-01 -1.940735e+00 30 33 49
-1.183191e+01 1.628876e-01 2.792637e+00 48 68 100
-2.033651e+00 -2.715587e+00 2.169639e+00 226 227 219
-2.005427e+00 -2.410823e+00 2.118493e+00 240 235 233
-1.705388e+00 -1.784459e+00 1.636065e+00 255 254 255
-4.150430e+00 -1.988886e+00 4.508176e+00 243 240 233
-2.444180e+00 -9.963204e-01 1.882783e+00 38 36 49
-5.624335e+00 -2.056550e+00 -7.868581e+00 106 95 91
-1.852771e+00 -2.318995e+00 1.748055e+00 238 239 229
-2.098036e+00 -2.369966e+00 2.391554e+00 240 241 234
-1.428397e+00 -1.471630e+00 -1.757576e+00 12 12 12
-1.748238e+00 -1.939066e+00 1.619166e+00 201 195 183
-2.105149e+00 -6.743851e-01 5.678793e-01 25 27 26
-1.789859e+00 -2.395373e+00 1.529074e+00 67 79 92
-1.481021e+00 -2.374893e+00 9.480454e-01 76 78 74
-4.516112e+00 -3.442613e+00 4.789671e+00 55 67 61
-1.751601e+00 -1.891988e+00 1.678775e+00 190 183 169
-4.536410e+00 -3.389353e+00 4.700752e+00 119 120 105
-1.749942e+00 -7.165407e-01 1.683263e-01 230 230 229
-1.832855e+00 6.139867e-01 -1.986865e+00 131 135 147
-1.818791e+00 -2.599733e+00 1.706173e+00 217 207 204
-2.051158e+00 -2.742304e+00 2.241260e+00 222 213 205
-1.559812e+00 -2.376906e+00 1.139006e+00 219 214 211
-2.110106e+00 -2.422328e+00 2.385230e+00 90 104 112
-2.111569e+00 -2.422664e+00 2.383795e+00 90 104 112
-1.820628e+00 -1.913020e+00 1.852218e+00 156 107 96
-2.526511e+00 -9.134085e-01 2.004583e+00 34 39 35
-1.722571e+00 -2.525921e+00 1.448940e+00 214 206 204
-1.766046e+00 -2.561237e+00 1.565360e+00 214 209 202
-1.878424e+00 -2.627582e+00 1.810602e+00 213 207 200
-1.649980e+00 -2.428459e+00 1.339115e+00 215 213 211
-1.928481e+00 -2.595910e+00 1.968567e+00 220 219 214
-1.951165e+00 -2.603621e+00 1.992175e+00 224 220 212
-2.069226e+00 -2.662328e+00 2.244699e+00 228 223 220
-1.786337e+00 -2.416093e+00 1.584573e+00 142 158 163
-1.830883e+00 -2.213890e+00 1.755305e+00 192 191 191
-2.109065e+00 -2.166028e+00 2.443751e+00 154 97 93
-1.871835e+00 -1.955096e+00 1.920835e+00 136 80 76
-1.762312e+00 -1.851251e+00 1.669728e+00 185 176 158
-1.899225e+00 -1.932832e+00 2.069766e+00 66 65 55
-1.936262e+00 -1.950466e+00 2.185201e+00 83 80 72
-1.749099e+00 -6.556067e-01 1.910282e-01 198 200 197
-4.772744e+00 -2.185956e+00 5.055055e+00 152 147 135
-2.383726e+00 -8.588459e-01 1.745122e+00 35 36 32
-2.394885e+00 -8.579615e-01 1.774915e+00 181 176 166
-2.516740e+00 -9.442463e-01 2.037080e+00 218 204 194
-1.092944e+01 7.087876e-01 1.839707e+00 52 58 62
-1.572828e+00 -2.450007e+00 1.156443e+00 214 205 202
-1.782235e+00 -2.575658e+00 1.607100e+00 214 206 201
-1.652108e+00 -2.456250e+00 1.310151e+00 99 102 97
-2.090025e+00 -2.502010e+00 2.267921e+00 187 181 177
-1.792690e+00 -2.173274e+00 1.660055e+00 172 174 168
-1.802545e+00 -1.910724e+00 1.771235e+00 139 79 71
-1.732247e+00 -1.828288e+00 1.712939e+00 74 74 75
-1.761701e+00 -1.762207e+00 1.804563e+00 76 77 74
-1.766289e+00 -1.763805e+00 1.803323e+00 76 77 74
-1.931403e+00 -1.855407e+00 2.197616e+00 86 87 82
-1.931403e+00 -1.855407e+00 2.197616e+00 86 87 82
-1.889580e+00 -1.818135e+00 2.118305e+00 217 211 211
-1.889580e+00 -1.818135e+00 2.118305e+00 217 211 211
-3.286351e+00 -1.409734e+00 3.420725e+00 232 229 223
-2.472370e+00 -8.829391e-01 1.949991e+00 238 227 220
-2.457142e+00 -8.475189e-01 1.911733e+00 211 202 204
-2.502190e+00 -8.604538e-01 1.958035e+00 43 47 38
-9.462223e+00 1.457936e+00 -7.468934e-01 63 62 60
-3.325329e+02 2.178199e+01 -1.308095e+02 255 255 255
-3.407811e+02 1.822724e+01 -1.165933e+02 254 254 255
-3.412993e+02 1.828418e+01 -1.167099e+02 254 254 255
-3.384970e+02 1.670570e+01 -1.221415e+02 252 242 234
-3.405897e+02 1.642877e+01 -1.174395e+02 68 67 89
-3.365489e+02 1.833741e+01 -1.220768e+02 218 219 211
-3.362166e+02 2.316789e+01 -1.252179e+02 113 127 145
-3.362166e+02 2.316789e+01 -1.252179e+02 113 127 145
-6.354847e+02 5.425009e+01 -2.452789e+02 124 116 97
-3.419499e+02 1.272068e+01 -1.180620e+02 77 69 76
-5.866385e+02 4.869525e+01 -2.928490e+02 57 63 72
-5.803749e+02 4.884955e+01 -2.916350e+02 78 81 94
-3.389641e+02 2.163473e+01 -1.192722e+02 255 253 253
-3.391285e+02 1.384805e+01 -1.190870e+02 247 254 251
-3.399158e+02 1.549757e+01 -1.159073e+02 253 254 252
-3.379340e+02 1.700185e+01 -1.200307e+02 255 251 242
-5.181539e+02 4.284541e+01 -2.449764e+02 193 210 211
-9.530627e+00 1.441007e+00 -5.830969e-01 33 43 52
-3.330486e+02 2.637257e+01 -1.323704e+02 101 116 140
-3.437186e+02 1.220203e+01 -1.163491e+02 111 111 73
-5.809286e+02 5.352779e+01 -2.235474e+02 179 169 139
-2.654042e+02 -1.084664e+00 -4.915947e+01 58 55 43
-3.354521e+02 2.758739e+01 -1.302998e+02 254 255 255
-3.356394e+02 2.760860e+01 -1.303576e+02 254 255 255
-5.940598e+02 5.304118e+01 -2.814076e+02 255 255 255
-3.048290e+02 3.510025e+00 -7.015023e+01 86 89 68
-3.473667e+02 1.398441e+01 -1.173161e+02 227 211 155
-3.418255e+02 3.258978e+01 -1.446023e+02 86 86 94
-4.313824e+02 3.130622e+01 -1.426876e+02 203 188 156
-5.922821e+02 6.319975e+01 -2.316127e+02 151 138 112
-3.337162e+02 2.026864e+01 -1.275128e+02 216 213 209
-3.665575e+02 2.734507e+01 -1.055379e+02 92 82 70
-3.407115e+02 1.309231e+01 -1.194979e+02 97 98 92
-3.689316e+02 1.035142e+01 -1.102937e+02 89 79 68
-3.856222e+02 1.225883e+01 -1.188780e+02 195 180 152
-3.847223e+02 1.217616e+01 -1.185885e+02 195 180 152
-3.425805e+02 1.482440e+01 -1.162261e+02 93 93 85
-3.357789e+02 1.911165e+01 -1.225357e+02 255 254 254
-3.660416e+02 2.135266e+01 -1.050820e+02 125 118 91
-3.659441e+02 2.505793e+01 -1.052355e+02 210 208 169
-3.683068e+02 3.005707e+01 -1.046395e+02 244 234 198
-3.676119e+02 2.063826e+01 -1.062322e+02 106 102 67
-4.196849e+02 2.736176e+01 -1.367626e+02 94 92 53
-4.230018e+01 1.523887e+01 -7.222731e+01 237 188 128
-3.297276e+02 2.847891e+01 -1.396851e+02 79 98 131
-1.759972e+02 -1.028654e+01 4.613570e+00 59 56 38
-2.124297e+02 4.224744e+00 -1.438796e+01 209 198 169
-3.312043e+02 2.947427e+01 -1.379311e+02 254 254 253
-2.121930e+00 -2.144715e+00 2.484413e+00 226 169 176
-1.763516e+02 -1.096749e+01 5.107701e+00 171 157 124
-2.122975e+02 -2.311043e+00 -1.652752e+01 25 28 14
-2.132242e+02 4.905094e+00 -1.512438e+01 59 57 44
-2.281604e+02 1.115388e+01 -2.313877e+01 161 146 115
-2.313713e+02 1.517245e+01 -2.054529e+01 192 184 146
-1.460865e+02 -8.681044e+00 -2.821447e+00 59 59 62
-1.582269e+02 -8.605057e+00 1.619298e+01 67 60 32
-2.140190e+02 -3.204980e+00 -1.581773e+01 64 59 44
-2.114829e+02 1.344019e+00 -1.491526e+01 169 165 120
-3.342446e+02 2.896638e+01 -1.381179e+02 77 84 112
-2.297653e+02 7.930133e+00 -2.477529e+01 32 26 13
-1.941931e+02 5.101660e+00 -3.914652e+00 47 45 34
-2.654100e+02 1.385700e+01 -4.542184e+01 181 166 135
-2.310943e+02 1.418075e+01 -2.222674e+01 224 214 206
-3.148843e+00 -1.452198e+00 2.915468e+00 127 135 161
-9.591645e+00 1.342874e+00 -5.219727e-01 18 23 28
-1.286216e+02 -1.159766e+01 1.548842e+01 98 102 79
-1.760404e+02 -1.090245e+01 3.985091e+00 156 146 113
-1.586918e+02 -9.019730e+00 1.541403e+01 54 61 39
-2.640384e+02 3.064725e+00 -4.790437e+01 185 183 152
-1.940517e+02 -2.026408e+00 -5.262538e+00 215 208 172
-1.764184e+02 -2.817831e+00 5.709135e+00 79 81 44
-2.297954e+02 2.125986e+00 -2.582488e+01 76 75 32
-1.940146e+02 6.340292e-01 -4.292825e+00 235 223 194
-2.118453e+02 2.419671e+00 -1.440595e+01 69 67 30
-2.303913e+02 4.093424e+00 -2.449670e+01 104 97 66
-1.941177e+02 1.808762e+00 -4.137460e+00 207 198 154
-2.294824e+02 5.615519e+00 -2.446847e+01 229 225 185
-2.115615e+02 4.306019e+00 -1.446384e+01 202 190 159
-2.292989e+02 6.229706e+00 -2.478856e+01 31 31 3
-2.118005e+02 4.405234e+00 -1.347701e+01 73 62 43
-2.118987e+02 4.413906e+00 -1.348047e+01 73 62 43
-2.487255e+02 8.388518e+00 -3.478649e+01 72 62 34
-2.310034e+02 7.475626e+00 -2.462642e+01 165 160 120
-2.115566e+02 6.635625e+00 -1.425323e+01 159 159 132
-2.115566e+02 6.635625e+00 -1.425323e+01 159 159 132
-2.818279e+02 1.537680e+01 -5.516831e+01 103 93 75
-2.647040e+02 1.315308e+01 -4.468276e+01 62 59 37
-2.306794e+02 1.331891e+01 -2.114255e+01 212 203 172
-1.665951e+00 -2.287633e+00 1.347424e+00 254 251 247
-1.288849e+02 -1.113974e+01 1.619305e+01 150 138 138
-1.286480e+02 -1.116025e+01 1.642431e+01 255 253 245
-1.939651e+02 -6.046266e+00 -6.028851e+00 148 139 112
-2.120835e+02 -1.086430e+00 -1.531388e+01 141 138 90
-2.113328e+02 -7.136301e-01 -1.544542e+01 190 186 140
-1.763273e+02 -3.504656e+00 5.811335e+00 82 79 29
-2.295283e+02 1.126706e+00 -2.606826e+01 31 19 2
-2.289704e+02 2.815028e+00 -2.543609e+01 65 59 23
-2.295644e+02 3.803253e+00 -2.535499e+01 68 60 29
-2.293006e+02 4.481785e+00 -2.512597e+01 72 67 42
-2.843869e+02 1.048569e+01 -5.510347e+01 235 229 194
-2.300973e+02 5.568775e+00 -2.413538e+01 118 112 80
-1.939295e+02 3.166738e+00 -4.641788e+00 22 31 1
-2.119781e+02 5.190107e+00 -1.348606e+01 44 37 20
-2.114207e+02 7.046529e+00 -1.437682e+01 202 195 157
-2.121278e+02 8.691044e+00 -1.355870e+01 58 55 28
-1.552457e+00 -2.371085e+00 1.140356e+00 205 206 190
-1.754402e+00 -2.293463e+00 1.526609e+00 202 193 180
-2.125283e+00 -2.096370e+00 2.515198e+00 230 214 183
-1.880885e+00 -2.988203e+00 7.719023e-02 13 13 13
-1.439942e+00 -1.166735e+00 -1.755541e+00 157 82 49
-2.463304e+00 -8.854428e-01 1.541739e+00 190 191 182
-1.395981e+00 -1.585323e+00 -1.174155e+00 69 77 79
-1.765721e+00 -7.273447e-01 3.310553e-01 235 235 238
-2.628920e+00 -7.371899e-01 1.952325e+00 255 255 255
-9.452682e+01 -1.202973e+01 1.754352e+01 111 107 88
-4.285588e+00 -2.890372e+00 4.587899e+00 162 101 45
-1.027222e+02 -1.357060e+01 2.312792e+01 58 60 59
-8.816982e+01 -8.407869e+00 6.496979e+00 111 105 89
-3.917088e+00 1.589556e-01 -4.132722e+00 168 166 152
-9.699059e+01 -1.257752e+01 2.119374e+01 159 155 130
-4.636048e+00 -1.898265e+00 -8.558594e+00 205 202 195
-8.909225e+01 -1.000956e+01 1.002291e+01 102 101 90
-9.871295e+01 -1.318165e+01 2.384264e+01 181 173 152
-9.457955e+01 -1.141378e+01 1.672603e+01 159 152 134
-9.486247e+01 -1.139508e+01 1.746754e+01 95 97 81
-9.037962e+01 -9.388480e+00 1.110423e+01 139 134 120
-9.037962e+01 -9.388480e+00 1.110423e+01 139 134 120
-6.041905e+01 7.161123e+00 -4.600988e+01 149 158 93
-1.009578e+01 -1.043717e+01 -1.730913e+01 248 247 246
-1.196503e+00 -4.189014e-01 -1.331276e+01 128 112 84
-1.988692e+00 -2.390770e+00 2.088443e+00 238 235 227
-1.514157e+00 -1.984848e+00 9.837245e-01 39 39 46
-4.244419e+01 -1.079726e+01 1.948541e+01 121 120 117
-9.788218e+01 -1.363202e+01 2.364807e+01 56 51 46
-9.223555e+00 7.566095e-01 1.261822e+00 160 186 214
-9.356298e+01 -1.158972e+01 1.603135e+01 69 74 55
-8.794016e+01 -9.302205e+00 7.517624e+00 86 79 76
-7.748485e+00 2.211034e+00 -4.318985e+00 148 190 230
-2.256331e+00 -1.971297e+00 2.790848e+00 80 80 95
-1.538482e+00 -1.461723e+00 1.024599e+00 85 91 101
-1.740726e+00 -2.702955e-01 2.471096e-02 83 80 96
-4.104968e+01 -1.073798e+01 1.954134e+01 254 252 239
-4.270220e+01 -1.096642e+01 2.018081e+01 96 95 94
-6.843793e+01 -1.218333e+01 2.136056e+01 62 69 62
-6.843793e+01 -1.218333e+01 2.136056e+01 62 69 62
-9.634714e+01 -1.217404e+01 2.048270e+01 122 119 102
-9.372763e+01 -8.477970e+00 8.756738e+00 205 194 149
-2.904501e+01 -9.035917e+00 1.397965e+01 122 119 111
-2.904501e+01 -9.035917e+00 1.397965e+01 122 119 111
-1.757748e+00 -6.514595e-01 1.443242e-01 57 55 76
-1.800901e+00 -3.129070e-01 9.736683e-02 251 251 252
-4.325544e+01 -1.065631e+01 1.870707e+01 92 92 93
-1.669302e+01 1.025843e+00 -2.069795e+01 216 216 204
-1.476191e+01 2.116406e+00 -2.454355e+01 175 177 163
-6.530755e+01 -1.130029e+01 1.884098e+01 38 42 45
-6.651795e+01 -1.116335e+01 1.827165e+01 109 112 105
-9.190566e+01 -1.433672e+01 2.865241e+01 39 38 38
-8.807260e+01 -1.016809e+01 1.078227e+01 90 94 90
-9.977253e+01 -1.350705e+01 2.454738e+01 59 52 51
-9.612736e+01 -1.217309e+01 1.959303e+01 126 120 107
-8.779319e+01 -7.181621e+00 3.781346e+00 122 123 91
-1.330747e+01 -8.380190e+00 1.411575e+01 201 171 148
-1.996275e+00 -7.334533e-01 -1.222176e+01 233 234 214
-2.071727e+00 -2.778069e+00 2.198075e+00 35 32 58
-6.165457e+00 -2.276585e+00 -7.238590e+00 70 80 64
-1.865870e+00 -2.501462e+00 1.762332e+00 111 116 135
-1.427445e+00 -1.530419e+00 -2.222205e+00 22 21 29
-1.308536e+00 -1.511535e+00 -2.195204e+00 22 21 29
-1.641360e+00 -1.983665e+00 1.377841e+00 112 110 142
-2.504938e+00 -9.032202e-01 1.991357e+00 57 50 99
-1.728787e+01 7.445556e-01 -1.992746e+01 217 213 207
-1.735110e+01 7.395873e-01 -1.996153e+01 217 213 207
-9.106502e+01 -1.437424e+01 2.911129e+01 40 45 46
-9.717628e+01 -1.386736e+01 2.763685e+01 113 112 85
-9.252396e+01 -9.247485e+00 1.114882e+01 147 133 88
-9.376057e+01 -9.254025e+00 1.143931e+01 204 189 145
-4.730827e-01 3.384142e-02 -1.495103e+01 233 231 226
-2.450344e+00 -7.869636e-01 -1.209936e+01 115 112 108
-1.907851e+00 -2.538102e+00 1.869742e+00 124 127 143
-2.102300e+00 -2.593834e+00 2.251303e+00 200 220 227
-1.941613e+00 -2.297841e+00 1.976014e+00 224 235 243
-1.642612e+00 -1.697519e+00 1.507169e+00 244 243 238
-2.393415e+00 -1.051157e+00 1.692240e+00 87 88 115
-1.805086e+00 -6.458718e-01 1.810108e-01 250 251 254
6.212641e-01 -3.634767e-01 1.474825e+00 122 138 161
-1.650920e+01 1.154101e+00 -2.112831e+01 196 198 178
-4.052392e+01 -8.783196e+00 1.188338e+01 43 40 50
-9.698138e+01 -1.095492e+01 1.788444e+01 224 216 163
-1.117844e+02 -1.398424e+01 2.759958e+01 96 81 56
-5.697940e+01 6.643271e+00 -4.722357e+01 219 215 180
-3.112391e+00 -1.849402e+00 3.633291e+00 152 166 168
-3.422168e+00 -1.523719e+00 3.551415e+00 252 251 249
-3.289814e+00 -1.896394e+00 3.403283e+00 163 168 171
-1.906085e+00 -1.991710e+00 2.057292e+00 214 170 160
-1.005906e+00 -1.110703e+00 -6.881105e-01 93 51 38
-7.845654e+00 1.596710e+00 -1.549926e+00 115 133 152
-1.991900e+00 -1.952330e+00 2.316211e+00 80 80 76
-1.103661e+00 -1.340085e+00 -7.009421e-01 68 45 33
-2.158718e+00 -2.278642e+00 2.523348e+00 208 199 185
-2.103677e+02 -1.934456e+00 -3.966726e+01 164 168 94
-2.100589e+00 -2.217644e+00 2.460995e+00 211 209 196
-3.257053e+00 -2.771166e+00 4.063398e+00 132 73 39
-3.454884e+00 1.483816e-01 -4.050476e+00 107 105 90
-1.843380e+00 -5.344273e-01 3.485405e-01 40 41 39
-8.240813e+00 2.015561e+00 -3.096722e+00 29 31 33
-2.173345e+02 -1.478410e+00 -4.442935e+01 53 53 48
-2.291680e+02 -2.185471e+00 -2.743570e+01 85 74 60
-1.975949e+00 -2.358460e+00 2.051265e+00 195 186 173
-1.620887e+00 -2.395254e+00 1.256044e+00 37 46 43
-2.021657e+00 -2.652039e+00 2.167011e+00 46 56 49
-2.017367e+00 -2.650281e+00 2.171608e+00 46 56 49
-2.070291e+00 -2.475328e+00 2.273715e+00 201 190 182
-1.896185e+00 -1.954865e+00 2.009499e+00 166 125 113
-1.609100e+00 -1.730181e+00 1.418066e+00 65 66 61
-2.022441e+00 -2.007259e+00 2.399500e+00 86 92 85
-2.045270e+00 -2.009815e+00 2.379532e+00 86 92 85
-9.216642e+00 8.228040e-01 1.108486e+00 47 53 65
-2.175418e+02 -1.274355e+00 -4.409876e+01 120 111 76
-2.321864e+02 -3.303622e-03 -5.196032e+01 153 139 96
-2.208309e+00 -2.917563e+00 1.231554e+00 123 124 114
-1.913404e+00 -2.653623e+00 1.898740e+00 221 211 205
-2.087791e+00 -2.782146e+00 2.324800e+00 98 93 89
-1.675246e+00 -2.469045e+00 1.396960e+00 88 89 83
-4.208488e+00 -3.221476e+00 4.329270e+00 97 99 94
-1.847006e+00 -1.884689e+00 1.915920e+00 77 79 72
-1.835676e+00 -1.889768e+00 1.949708e+00 216 209 206
-2.080859e+00 -2.032103e+00 2.520566e+00 207 197 190
-1.138512e+01 4.667706e-01 2.208413e+00 37 39 38
-2.101044e+02 -2.249048e+00 -4.055318e+01 74 65 41
-2.104799e+02 -2.095609e+00 -4.084472e+01 208 152 114
-2.104799e+02 -2.095609e+00 -4.084472e+01 208 152 114
-2.104952e+02 -2.091127e+00 -4.050833e+01 188 137 100
-2.113876e+02 -1.919007e+00 -4.113576e+01 59 57 29
-2.158034e+02 -7.396643e-01 -3.090030e+01 173 157 131
-2.289578e+02 -2.701380e+00 -2.634618e+01 76 61 33
-2.161234e+02 -2.050233e-01 -3.034962e+01 223 160 132
-1.892708e+00 -2.642540e+00 1.854608e+00 221 219 208
-2.002269e+00 -2.639960e+00 2.133030e+00 228 224 219
-2.047598e+00 -2.444681e+00 2.204298e+00 218 211 210
-1.438362e+00 -1.356140e+00 -1.163273e+00 66 51 38
-1.902061e+00 -1.918735e+00 2.041071e+00 215 203 195
-1.679900e+00 -1.730754e+00 1.591450e+00 101 99 89
-3.270642e+00 -1.720051e+00 3.445513e+00 125 127 113
-7.943040e+00 1.691451e+00 -1.747692e+00 109 120 130
-9.226942e+00 8.531995e-01 1.079502e+00 115 126 133
-1.948995e+00 -2.638977e+00 1.973191e+00 215 215 207
-2.015498e+00 -2.520547e+00 2.059338e+00 177 191 193
-2.058334e+00 -2.576400e+00 2.186478e+00 176 189 194
-1.654175e+00 -2.461640e+00 1.342476e+00 90 90 88
-1.540353e+00 -9.140752e-01 -1.606590e+00 126 128 116
-1.478622e+00 -8.904338e-01 -2.001448e+00 152 86 14
-1.839929e+00 3.522392e-01 -1.757154e+00 242 239 233
-2.156266e+00 -2.405626e+00 2.454271e+00 236 235 229
-1.812995e+00 -4.091317e-01 -4.064745e-02 252 252 252
-1.810253e+00 4.915770e-01 -1.865831e+00 221 223 220
-1.982428e+00 -2.663702e+00 2.077182e+00 245 246 241
-2.493927e+00 -1.025378e+00 1.985849e+00 45 54 77
-1.689423e+00 -9.756806e-01 -1.886103e+00 195 128 34
-1.589937e+00 -1.382866e-03 -2.176900e+00 209 202 182
-4.146563e+00 -1.984491e+00 4.515152e+00 241 240 234
-1.064637e+01 8.158313e-01 1.612856e+00 73 84 84
-2.159176e+00 -2.557418e+00 2.290519e+00 92 108 120
-2.495823e+00 -9.967431e-01 2.100147e+00 225 229 209
-2.560390e+00 -8.684614e-01 2.077668e+00 70 69 101
-7.543521e+00 -3.857715e+00 4.264448e+00 58 58 61
-8.209048e+00 -4.551636e+00 -4.778871e+00 99 92 80
-3.429560e+02 1.814735e+01 -1.171983e+02 254 255 254
-3.294349e+02 2.534777e+01 -1.357711e+02 253 255 253
-2.813363e+02 1.632264e-01 -5.732144e+01 93 79 62
-3.165728e+02 4.481433e+00 -7.980479e+01 66 60 47
-3.171605e+02 4.584598e+00 -7.784061e+01 109 102 70
-3.424323e+02 1.480526e+01 -1.161738e+02 93 93 85
-2.639437e+02 4.793386e+00 -4.752943e+01 186 182 148
-2.167345e+02 -1.236818e+00 -4.476915e+01 72 68 61
-3.010617e+02 2.896503e+00 -6.846595e+01 190 189 150
-6.225560e+02 5.504709e+01 -2.424052e+02 105 102 62
-3.354229e+02 2.625023e+01 -1.293668e+02 83 100 125
-2.306186e+02 1.439871e+01 -2.124010e+01 36 36 40
-2.303585e+02 1.439824e+01 -2.120327e+01 36 36 40
-1.309343e+00 -6.214641e-01 1.190515e+00 19 22 33
-3.697958e+02 3.715389e+01 -1.056822e+02 210 203 195
-3.710159e+02 3.976864e+01 -1.043547e+02 86 72 71
-3.344433e+02 2.492116e+01 -1.318801e+02 78 92 136
-2.834976e+02 1.128804e+01 -5.469074e+01 238 228 195
-3.708496e+02 2.234424e+01 -1.071688e+02 218 212 186
-4.072074e+02 2.779842e+01 -1.268307e+02 189 177 139
-4.228574e+02 3.153450e+01 -1.382845e+02 102 95 77
-2.117863e+02 6.706714e+00 -1.377385e+01 27 30 18
-4.311514e+02 3.846836e+01 -1.406859e+02 215 191 160
-3.004652e+02 1.727255e+00 -6.929134e+01 174 165 142
-4.058959e+02 2.175306e+01 -1.289082e+02 35 36 14
-3.360829e+02 2.457067e+01 -1.305699e+02 124 126 172
-3.342763e+02 2.446179e+01 -1.298324e+02 124 126 172
-2.831519e+02 1.102187e+01 -5.532671e+01 163 147 121
-2.828961e+02 1.224028e+01 -5.502099e+01 182 171 142
-1.289215e+02 -1.113828e+01 1.620829e+01 150 138 138
-4.054183e+02 2.925182e+01 -1.270171e+02 71 59 38
-3.701444e+02 4.149924e+01 -1.044796e+02 135 129 127
-3.701444e+02 4.149924e+01 -1.044796e+02 135 129 127
-3.251789e+02 2.448780e+01 -1.386181e+02 255 254 252
-3.245614e+02 2.446538e+01 -1.383972e+02 255 254 252
-1.402487e+02 -1.407386e+01 2.418474e+01 49 49 42
-1.417770e+02 -1.314446e+01 2.401680e+01 195 196 182
-3.188050e+02 1.713850e+01 -1.343767e+02 154 155 157
-3.443100e+02 2.556928e+01 -1.259408e+02 244 243 239
-3.699408e+02 3.613756e+01 -1.041508e+02 140 136 123
-3.699408e+02 3.613756e+01 -1.041508e+02 140 136 123
-1.579672e+02 -1.281419e+01 1.480427e+01 45 43 34
-1.392017e+02 -1.268922e+01 2.572499e+01 52 51 39
-1.395646e+02 -1.131302e+01 2.620278e+01 71 71 54
-1.395646e+02 -1.131302e+01 2.620278e+01 71 71 54
-1.399590e+02 -8.241710e+00 2.636511e+01 177 171 136
-1.396137e+02 -4.110410e+00 2.689186e+01 224 217 176
-1.398005e+02 -4.131436e+00 2.750725e+01 34 35 25
-3.764982e+02 4.073495e+01 -1.075912e+02 249 245 241
-9.140859e+01 -1.466354e+01 2.850957e+01 33 39 28
-9.363740e+01 -1.070348e+01 1.535784e+01 78 81 74
-1.392278e+02 -1.439616e+01 2.569662e+01 153 146 122
-1.566605e+02 -1.297096e+01 1.417848e+01 142 139 98
-1.398888e+02 -1.305160e+01 2.450588e+01 53 52 58
-1.396047e+02 -8.939241e+00 2.641586e+01 205 200 158
-2.128078e+02 -2.859501e+00 -1.610888e+01 214 210 180
-1.396418e+02 -5.631638e+00 2.760494e+01 198 193 154
-1.399089e+02 -5.654214e+00 2.763707e+01 198 193 154
-1.407225e+02 -3.180595e+00 2.650653e+01 44 50 35
-2.287843e+02 6.403155e+00 -2.412847e+01 185 177 138
-2.299784e+02 6.679022e+00 -2.511760e+01 36 36 23
-2.320011e+02 1.626830e+01 -2.179988e+01 237 239 237
-1.059606e+01 2.619553e+00 -2.296924e+01 210 213 207
-1.576187e+02 -1.301617e+01 1.537797e+01 169 165 136
-1.393031e+02 -1.188436e+01 2.549340e+01 115 110 80
-1.399801e+02 -6.702067e+00 2.753676e+01 109 107 81
-1.397248e+02 -4.663275e+00 2.731473e+01 49 46 35
-1.933598e+02 6.660517e-01 -4.851248e+00 77 84 46
-3.384142e+02 2.128775e+01 -1.204881e+02 89 98 124
-1.393306e+02 -2.829856e+00 2.675528e+01 213 206 165
-9.670339e+01 -1.364061e+01 2.665551e+01 146 147 101
-1.284561e+02 -1.189888e+01 1.561620e+01 252 251 243
-1.392044e+02 -1.361894e+01 2.508390e+01 52 53 42
-1.388568e+02 -1.361903e+01 2.633074e+01 43 39 21
-1.399138e+02 -1.156360e+01 2.565319e+01 44 41 29
-1.402476e+02 -1.157255e+01 2.568925e+01 44 41 29
-1.399323e+02 -1.054743e+01 2.580314e+01 192 189 156
-1.397305e+02 -9.884312e+00 2.638828e+01 203 193 169
-1.763625e+02 -2.573182e+00 5.351881e+00 174 174 145
-3.319127e+02 2.241981e+01 -1.380251e+02 254 254 227
-2.654758e+02 7.793047e+00 -4.749925e+01 218 214 168
-1.580653e+02 -2.391579e+00 1.692229e+01 83 89 57
-2.293857e+02 9.370160e+00 -2.267580e+01 204 196 141
-1.564876e+02 -1.316591e+01 1.468131e+01 166 162 115
-1.756640e+02 -1.053234e+01 4.852825e+00 78 71 52
-3.497479e+02 2.156078e+01 -1.543272e+02 84 96 115
-2.295916e+02 8.625186e-01 -2.568139e+01 233 220 193
-3.997823e+02 2.861052e+01 -1.777582e+02 105 109 108
-3.323615e+02 2.125309e+01 -1.318141e+02 214 213 209
-3.323615e+02 2.125309e+01 -1.318141e+02 214 213 209
-1.762330e+02 -1.892069e+00 5.447862e+00 217 214 179
-1.580856e+02 -2.906743e+00 1.684195e+01 93 97 56
-3.962975e+02 3.112172e+01 -1.746458e+02 61 57 78
-3.313385e+02 2.610447e+01 -1.380754e+02 254 254 251
-2.496708e+02 6.513362e+00 -3.561173e+01 199 187 134
-1.393995e+02 -3.310500e+00 2.798102e+01 79 74 55
-2.118488e+02 8.667443e+00 -1.354754e+01 73 69 33
-1.463465e+00 -2.163917e+00 8.977336e-01 14 14 14
-2.647487e+02 -7.850639e-01 -4.774893e+01 127 112 83
-2.824421e+02 -2.182200e-01 -5.785789e+01 53 53 40
-2.467016e+02 -3.356662e+00 -3.881118e+01 141 134 87
-2.654233e+02 -1.580621e+00 -4.945457e+01 124 106 74
-3.031773e+02 1.658937e+00 -7.062993e+01 62 65 41
-2.827755e+02 -6.489688e-02 -5.893106e+01 54 51 38
-2.832630e+02 -2.920603e-01 -5.754767e+01 155 138 105
-2.653733e+02 1.041864e+00 -4.849444e+01 113 101 70
-2.828959e+02 3.172057e-02 -5.843840e+01 150 130 109
-2.828959e+02 3.172057e-02 -5.843840e+01 150 130 109
-2.651024e+02 1.573616e-01 -4.743651e+01 201 177 146
-3.041095e+02 3.780430e+00 -6.872401e+01 149 133 98
-2.649876e+02 1.135489e+00 -4.749963e+01 58 61 40
-3.030350e+02 2.391400e+00 -6.968533e+01 138 127 92
-2.834642e+02 9.303199e-01 -5.853572e+01 132 125 100
-2.830382e+02 9.963720e-01 -5.803733e+01 65 69 51
-2.832310e+02 1.213849e+00 -5.861874e+01 62 61 43
-2.653121e+02 -1.660763e-01 -4.836752e+01 62 64 42
-2.829586e+02 1.362602e+00 -5.787642e+01 76 78 63
-2.831866e+02 1.828483e+00 -5.820554e+01 172 156 128
-2.831866e+02 1.828483e+00 -5.820554e+01 172 156 128
-2.657704e+02 4.030084e-01 -4.831041e+01 57 57 31
-2.837648e+02 3.150916e+00 -5.836858e+01 140 133 105
-2.650533e+02 1.410846e+00 -4.740930e+01 66 67 42
-3.047789e+02 2.092163e+00 -7.093761e+01 129 129 73
-2.834316e+02 9.700312e-01 -5.898366e+01 114 106 86
-2.834206e+02 1.757784e+00 -5.755539e+01 167 155 122
-2.843115e+02 1.724606e+00 -5.730362e+01 152 141 108
-2.653606e+02 6.985119e-01 -4.771201e+01 63 66 36
-2.652385e+02 7.757579e-01 -4.746390e+01 127 115 92
-3.028018e+02 2.116115e+00 -6.901735e+01 84 70 40
-2.832358e+02 5.745777e-01 -5.825220e+01 115 102 85
-2.832358e+02 5.745777e-01 -5.825220e+01 115 102 85
-2.650882e+02 5.241703e-01 -4.787397e+01 114 100 71
-3.759565e-01 1.463779e-01 -3.684640e-01 248 249 246
-1.962988e+00 -2.137622e+00 -3.282238e+00 10 10 10
-4.391301e+00 -2.574341e+00 4.892040e+00 217 231 240
1.170435e+01 -1.228903e+00 -7.778754e+00 125 129 129
-3.929791e+00 -3.477367e+00 3.989243e+00 220 231 233
-3.610966e+00 -1.941089e+00 3.760976e+00 203 220 231
-2.466252e+00 -8.868756e-01 1.543215e+00 233 236 220
-2.116093e+00 -2.335309e+00 2.970051e+00 199 209 209
-1.753202e+00 -1.571301e-01 1.694312e-01 254 254 254
-8.852437e+01 -1.496414e+01 3.054194e+01 45 52 51
-1.167605e+00 -2.815591e-01 -1.345353e+01 221 223 222
-1.240035e+00 -2.930760e-01 -1.348984e+01 221 223 222
-1.266463e+00 -3.565642e-01 -1.312905e+01 241 240 243
-1.258641e+00 -1.409961e+00 -2.295902e+00 248 248 246
-3.929364e+00 -3.310435e+00 4.171944e+00 200 212 215
-1.000898e+02 -1.348727e+01 2.483648e+01 63 66 53
-1.071056e+02 -1.379158e+01 2.637684e+01 198 188 141
1.544899e+01 -1.984077e+00 -4.545679e+00 48 41 44
1.544899e+01 -1.984077e+00 -4.545679e+00 48 41 44
-1.711585e+00 -2.111764e+00 1.471917e+00 247 247 246
-1.843547e+00 -1.713415e+00 1.945725e+00 128 131 145
-4.004458e+01 -9.592509e+00 1.550736e+01 121 117 114
-4.004458e+01 -9.592509e+00 1.550736e+01 121 117 114
-4.270693e+01 -1.070395e+01 1.909575e+01 47 54 60
-6.585181e+01 -1.280728e+01 2.428365e+01 72 82 89
-6.573226e+01 -1.139310e+01 1.979548e+01 75 80 83
-9.236017e+01 -1.450527e+01 2.713493e+01 103 111 88
-9.302179e+01 -1.042699e+01 1.713804e+01 217 206 151
1.489144e+01 -3.093674e-01 -6.846180e+00 162 160 171
1.192866e+01 -1.238661e+00 -7.941982e+00 246 247 247
-2.142317e+00 -2.026118e+00 2.636644e+00 250 253 251
-1.525751e+00 -1.465670e+00 1.017752e+00 76 83 98
-1.774930e+01 4.395157e-01 -1.922081e+01 62 78 91
3.534207e+00 2.583683e-01 1.617468e+00 39 46 69
-2.415285e+00 -9.747661e-01 1.775784e+00 47 51 71
-4.110693e+01 -9.805092e+00 1.561412e+01 126 123 121
-8.183386e+01 -1.562397e+01 3.483794e+01 43 48 51
9.567500e+00 -2.457403e+00 -4.164263e+00 249 249 247
-4.575438e-01 1.612145e-01 -1.509340e+01 240 239 235
-9.480690e-01 -4.940646e-02 -1.444172e+01 226 226 221
-1.383116e+00 -2.026078e+00 8.668259e-01 78 84 72
-1.814470e+00 -8.686250e-01 5.830469e-02 184 203 216
-1.714247e+01 8.559193e-01 -2.030056e+01 228 228 218
-4.104226e+01 -1.073396e+01 1.953890e+01 255 255 253
-5.740232e+01 -1.109144e+01 1.874447e+01 121 123 116
-7.809906e+01 -1.630285e+01 3.624657e+01 33 37 36
-8.782759e+01 -1.511195e+01 3.056678e+01 34 42 32
-9.087654e+01 -1.479692e+01 2.889159e+01 35 36 34
-9.490182e+01 -1.054342e+01 1.550026e+01 198 188 138
-9.670730e+01 -1.158429e+01 1.923329e+01 131 138 96
-9.670730e+01 -1.158429e+01 1.923329e+01 131 138 96
-1.105933e+02 -1.431154e+01 2.780261e+01 240 228 184
-1.109005e+02 -1.434486e+01 2.786097e+01 240 228 184
1.569301e+01 -2.092344e+00 -4.153226e+00 229 186 140
9.525750e+00 -2.429376e+00 -4.139333e+00 97 94 59
-1.731993e+00 -2.346921e+00 1.421745e+00 225 237 244
-1.452474e+00 -1.874278e+00 9.797358e-01 141 149 150
-1.831109e+01 3.081878e-01 -1.847859e+01 162 178 162
-2.446486e+00 -8.577102e-01 1.831796e+00 60 57 85
-2.537383e+00 -9.268517e-01 2.054959e+00 226 225 222
-5.085906e+00 -1.440825e+00 5.085899e+00 35 44 67
-5.102125e+00 -1.444427e+00 5.087163e+00 35 44 67
-4.181180e+01 -1.092720e+01 1.991594e+01 252 252 250
-4.181180e+01 -1.092720e+01 1.991594e+01 252 252 250
-7.784116e+01 -1.618770e+01 3.588634e+01 34 34 28
-6.110729e+01 5.321581e+00 -4.298998e+01 181 171 150
-8.733702e+01 -1.470802e+01 2.887698e+01 108 114 87
-9.287159e+01 -1.518429e+01 2.860496e+01 113 124 96
-8.594376e+01 -1.498825e+01 3.204836e+01 36 46 34
-9.709473e+01 -1.198697e+01 1.981578e+01 220 216 197
-9.682599e+01 -1.117019e+01 1.841526e+01 229 214 164
-1.113690e+02 -1.379789e+01 2.707056e+01 66 58 39
-1.779638e+01 5.555016e-01 -1.926087e+01 160 171 118
-3.495200e+00 1.248512e-01 -4.070893e+00 159 167 145
-7.827431e+01 -1.616637e+01 3.568476e+01 31 33 24
-8.273328e+01 -1.549331e+01 3.200836e+01 49 59 37
-8.273328e+01 -1.549331e+01 3.200836e+01 49 59 37
-8.857673e+01 -1.484606e+01 2.949903e+01 41 40 37
-8.668907e+01 -1.192567e+01 1.798339e+01 125 132 98
-8.961378e+01 -1.475516e+01 2.981291e+01 98 106 107
-9.383561e+01 -1.178980e+01 1.636589e+01 71 76 79
-9.636766e+01 -1.395308e+01 2.501239e+01 45 45 45
-9.670176e+01 -1.364203e+01 2.712160e+01 134 131 93
-1.001470e+01 2.970508e+00 -4.308746e+00 59 78 93
-2.183353e+00 -2.523864e-01 -2.905139e+00 165 160 131
-5.135101e+00 -6.955504e-01 -4.961130e+00 111 107 97
-1.169170e+01 4.233647e+00 -4.419253e+00 55 65 84
-1.190903e+01 2.442371e-01 3.057440e+00 75 74 71
-1.117728e+01 3.855057e+00 -4.227580e+00 110 122 121
-1.117728e+01 3.855057e+00 -4.227580e+00 110 122 121
-6.966824e+00 1.022109e-01 -5.858776e+00 83 84 78
-4.918045e+00 -2.069994e+00 -5.327200e+00 75 71 62
-4.839742e+00 -8.164615e-01 -4.810381e+00 119 124 128
-3.567854e+00 2.387897e-01 -4.000908e+00 167 164 136
-1.800409e+00 4.419648e-02 -1.587618e+00 158 151 139
-2.533333e+00 6.075746e-01 -2.726337e+00 105 83 61
-8.619747e+00 2.540204e+00 -4.888318e+00 191 200 204
-4.611701e+00 -1.762541e+00 -4.981864e+00 150 159 167
-4.277159e+00 -9.407118e-01 -4.696123e+00 44 45 36
-8.977881e+00 2.582948e+00 -5.298074e+00 188 204 213
-9.665359e+00 3.048877e+00 -6.606284e+00 68 69 62
-9.665359e+00 3.048877e+00 -6.606284e+00 68 69 62
-5.769618e+00 -1.658231e+00 -5.548858e+00 109 106 91
-1.651251e+00 -2.254665e+00 1.609749e+00 201 194 177
-1.961077e+00 7.862875e-02 -2.353237e+00 198 179 143
-7.882989e+00 1.971430e+00 -3.188440e+00 142 158 173
-3.570561e+00 -1.381223e+00 -1.027704e+01 213 206 190
-3.570561e+00 -1.381223e+00 -1.027704e+01 213 206 190
-6.862809e+00 -2.260320e+00 -8.900753e+00 58 57 51
-5.531330e+00 -1.918879e+00 -5.525711e+00 99 95 83
-1.516142e+00 -2.426770e+00 1.277405e+00 226 223 206
-1.628956e+00 -2.352963e+00 1.281097e+00 104 104 96
-1.357146e+00 -1.787662e+00 -2.395408e-01 98 97 92
-1.783922e+00 -7.675242e-01 1.663118e-01 253 255 254
-1.216091e+01 4.495106e+00 -4.612844e+00 138 160 183
-4.961000e+00 -1.932525e+00 -5.143849e+00 16 18 15
-4.566840e+00 -7.071042e-01 -4.635580e+00 14 15 15
-2.006772e+01 2.565334e+00 -3.763006e+00 159 175 174
-1.539984e+00 -1.918628e+00 7.499210e-01 71 71 66
-1.237935e+00 -1.161574e+00 -8.452542e-01 193 110 17
-5.441009e+00 -2.765708e-01 -4.927342e+00 129 120 110
-8.154499e+00 2.010767e+00 -3.080318e+00 36 38 37
-1.476000e+01 4.838994e+00 -5.975006e+00 43 52 71
-4.904143e+00 -1.484417e+00 -5.165567e+00 40 37 35
-4.904143e+00 -1.484417e+00 -5.165567e+00 40 37 35
-2.151585e+00 -2.546535e+00 2.443039e+00 216 203 173
-5.124988e+00 -1.360609e+00 -5.227053e+00 89 89 79
-4.728248e+00 -1.176520e+00 -4.986041e+00 33 34 33
-4.925247e+00 -8.655879e-01 -5.003390e+00 41 40 36
-4.925247e+00 -8.655879e-01 -5.003390e+00 41 40 36
-5.007460e+00 -7.454085e-01 -4.987275e+00 27 25 26
-5.007460e+00 -7.454085e-01 -4.987275e+00 27 25 26
-4.406872e+00 -1.689145e+00 -4.864209e+00 23 23 23
-1.171135e+00 -1.307303e+00 -8.576569e-01 253 185 41
-3.385217e+02 2.529828e+01 -1.239016e+02 247 248 243
-3.385217e+02 2.529828e+01 -1.239016e+02 247 248 243
-2.168389e+02 -3.884046e+00 -3.162292e+01 255 236 199
-2.270418e+02 -5.686326e+00 -3.040414e+01 189 191 127
-2.638561e+02 -1.095871e+00 -4.883186e+01 58 55 43
-1.061144e+02 2.076169e+01 -1.060618e+02 196 181 162
-1.106922e+02 2.146691e+01 -1.094788e+02 188 178 158
-2.640797e+02 8.825444e+00 -4.696851e+01 201 198 143
-2.120386e+02 -1.730983e+00 -4.198998e+01 63 64 55
-1.349205e+02 2.376545e+01 -1.221637e+02 193 183 150
-2.814254e+02 7.179322e-01 -5.762920e+01 213 199 175
-1.244556e+01 4.773762e-01 2.148887e+00 96 130 163
-9.138098e+00 -9.969568e+00 -2.631302e+01 127 123 129
-2.094653e+02 3.283332e+01 -1.654066e+02 173 165 111
-2.290069e+02 -4.935460e+00 -2.766506e+01 63 55 46
-1.006304e+02 -5.441480e+00 -4.228681e+00 214 197 145
-1.548271e+02 -7.857620e+00 -6.120583e+00 154 164 94
-2.124941e+02 -6.276526e+00 -1.734067e+01 60 61 49
-2.289709e+02 -3.495247e+00 -2.642619e+01 63 52 38
-2.817426e+02 1.670399e+00 -5.775707e+01 208 203 172
-3.712177e+02 2.285605e+01 -1.063497e+02 124 112 79
-2.653754e+02 1.193219e+01 -4.444886e+01 216 210 159
-1.923499e+01 -1.581277e-01 -1.684912e+01 162 173 169
-7.931052e+00 1.645310e+00 -1.612343e+00 136 162 189
-2.116218e+02 -4.644348e+00 -1.634747e+01 189 188 165
-2.293329e+02 -2.125062e+00 -2.695494e+01 35 30 22
-2.115781e+02 -3.135105e+00 -1.605237e+01 208 201 166
-2.157036e+02 -5.479569e-01 -3.043851e+01 253 251 254
-2.646394e+02 2.412507e+00 -4.763854e+01 56 54 20
-3.538554e+02 2.474346e+01 -9.628603e+01 54 46 32
-3.688271e+02 3.129276e+01 -1.045163e+02 248 240 212
-3.523748e+02 3.237985e+01 -9.402443e+01 60 49 34
-3.535288e+02 3.410467e+01 -9.259232e+01 97 89 76
-2.288346e+02 -4.841240e+00 -2.912440e+01 195 180 151
-2.290790e+02 -4.145371e+00 -2.762550e+01 42 38 12
-2.116108e+02 -4.786273e+00 -1.594892e+01 46 35 12
-2.291680e+02 -1.547931e+00 -2.634051e+01 237 231 196
-2.292209e+02 -5.655751e-01 -2.655413e+01 34 32 5
-7.788502e+02 1.361721e+00 -1.499250e+02 109 108 106
-3.004136e+02 1.240234e+01 -6.664729e+01 237 223 179
-3.529919e+02 2.537224e+01 -9.643892e+01 225 217 206
-3.687061e+02 3.947454e+01 -1.027640e+02 225 218 191
-3.251297e+00 -1.755856e+00 3.386055e+00 220 225 224
-1.178492e+01 2.127764e+00 -3.322403e+00 50 72 86
-7.903638e+02 6.874797e+01 -4.117518e+02 82 67 76
-2.960996e+00 -1.088009e+00 2.453848e+00 174 174 165
-1.908856e+00 -2.132162e+00 1.964289e+00 212 209 196
-9.356829e+01 -1.464515e+01 2.705526e+01 92 96 67
-1.973816e+00 -2.039186e+00 2.150114e+00 223 172 171
-1.154213e+01 1.770875e-01 2.821839e+00 48 68 100
-2.158344e+02 -3.783870e+00 -3.141986e+01 255 238 216
-4.398304e+02 3.512679e+01 -1.992376e+02 24 32 36
-3.394497e+02 2.527828e+01 -1.228565e+02 253 255 250
-4.189150e-01 1.628839e-01 -1.493505e+01 230 232 223
-1.394568e+02 -5.786510e+00 2.681676e+01 68 67 47
-4.047166e+02 2.172485e+01 -1.285613e+02 33 34 19
-5.858110e+02 1.152455e+01 -6.486903e+00 141 124 141
-5.666541e+02 1.526831e+01 -4.255896e+00 248 253 255
3.491495e+00 -1.236920e+00 1.203276e+00 252 254 254
-1.582858e+02 -7.727282e+00 1.650684e+01 96 93 54
-1.929939e+02 3.490197e+01 -1.615248e+02 217 205 153
-1.935345e+02 3.740624e+00 -4.294080e+00 234 229 198
