ply
format ascii 1.0
element vertex 437
property float x
property float y
property float z
property uchar diffuse_red
property uchar diffuse_green
property uchar diffuse_blue
end_header
-2.470742e+00 1.053662e+00 -8.640483e+00 23 22 25
-6.673754e+01 6.811350e+01 -2.120150e+02 192 190 175
-9.516137e+00 1.764299e+01 -5.527010e+01 130 128 100
1.830504e+00 7.756296e-01 -7.324225e+00 214 232 217
-6.216115e+01 6.714363e+01 -2.011628e+02 187 187 172
-6.216115e+01 6.714363e+01 -2.011628e+02 187 187 172
-9.516137e+00 1.764299e+01 -5.527010e+01 130 128 100
-9.614272e+00 1.764622e+01 -5.504914e+01 253 242 218
-2.796275e+00 9.271720e-01 -8.778015e+00 181 191 195
5.676665e-01 8.126590e-01 -7.653859e+00 149 164 172
1.269410e+00 8.511519e-01 -7.462512e+00 221 228 232
-2.590024e+00 1.128292e+00 -8.648239e+00 75 73 72
1.025645e+00 7.433376e-01 -7.567992e+00 212 209 200
6.717417e-01 8.121773e-01 -7.624272e+00 66 68 72
-4.982350e+01 6.310865e+01 -1.827649e+02 247 245 233
-2.535823e+00 6.548935e-01 -8.751526e+00 204 208 212
1.326143e+00 6.624810e-01 -7.494482e+00 162 170 181
-2.659720e+00 1.121334e+00 -8.651903e+00 253 254 251
-5.258763e+01 6.560900e+01 -1.797451e+02 190 187 179
1.748193e+00 9.978913e-01 -7.246269e+00 221 230 231
-2.073261e+00 9.452351e-01 -8.430398e+00 121 137 146
-2.010460e+00 3.301822e+01 -1.033639e+02 144 140 140
2.357918e+00 1.336549e+00 -7.318383e+00 239 243 243
8.796278e+00 2.811083e+01 -8.628281e+01 236 237 221
1.099724e+00 6.602623e-01 -7.598998e+00 8 9 11
1.099724e+00 6.602623e-01 -7.598998e+00 8 9 11
1.439857e+00 8.254849e-01 -7.443186e+00 16 17 17
-2.573362e+00 7.230136e-01 -8.752293e+00 18 20 22
-2.795961e+00 7.250504e-01 -8.842665e+00 249 250 252
-2.773944e+00 1.048450e+00 -8.733447e+00 225 232 236
-3.899633e+01 5.028262e+01 -1.614468e+02 163 165 155
8.276200e+00 2.790322e+01 -8.067079e+01 182 180 175
-2.472077e+00 8.852878e-01 -8.659315e+00 254 255 252
-2.535823e+00 6.548935e-01 -8.751526e+00 204 208 212
1.261729e+00 6.412325e-01 -7.518293e+00 162 169 181
4.307075e-01 7.139064e-01 -7.832738e+00 67 68 68
-2.635290e+00 6.741552e-01 -8.790386e+00 251 251 250
-2.454596e+00 7.946592e-01 -8.701779e+00 43 44 46
-2.383336e+00 1.004426e+00 -8.583159e+00 173 182 190
-2.828972e+00 1.004945e+00 -8.786201e+00 26 26 30
-2.828972e+00 1.004945e+00 -8.786201e+00 26 26 30
-2.516677e+00 1.121692e+00 -8.602535e+00 213 221 225
-9.972559e-01 -6.039276e-02 2.192071e+00 77 67 78
-9.442116e-01 1.503996e+00 -7.829121e+00 253 255 255
-5.751472e+01 6.480422e+01 -1.895626e+02 204 198 187
-2.895612e+00 9.570126e-01 -8.807112e+00 252 251 249
-1.040488e+01 2.003147e+01 -5.454514e+01 94 90 81
-1.901838e+00 7.234483e-01 -8.679216e+00 10 12 11
1.302766e+00 7.470004e-01 -7.516449e+00 166 177 183
1.286226e+00 6.968546e-01 -7.519690e+00 161 173 189
1.256674e+00 5.751356e-01 -7.543634e+00 158 167 175
1.138437e+00 7.165415e-01 -7.518754e+00 169 181 189
8.337764e+00 1.181412e+01 -4.026207e+01 250 247 236
8.302133e+00 1.226990e+01 -4.037742e+01 252 253 245
1.311385e+00 6.192421e-01 -7.523782e+00 125 129 126
1.360481e+00 6.948234e-01 -7.475391e+00 98 98 96
1.202026e+00 7.468716e-01 -7.481963e+00 132 137 135
1.202026e+00 7.468716e-01 -7.481963e+00 132 137 135
1.390798e+00 7.787742e-01 -7.445739e+00 237 238 240
1.291517e+00 7.753821e-01 -7.448183e+00 121 125 125
-2.842114e+00 6.107417e-01 -8.828431e+00 129 122 116
9.597047e+00 1.002643e+01 -3.609624e+01 211 209 122
1.409106e+00 4.169772e-01 -7.580270e+00 46 49 55
1.555336e+00 7.079589e-01 -7.447667e+00 41 48 54
-2.650490e+00 7.401323e-01 -8.785628e+00 205 206 208
1.239479e+00 9.316934e-01 -7.438408e+00 186 199 211
1.034560e+01 9.680769e+00 -3.489588e+01 111 113 61
9.478262e+00 1.053144e+01 -3.740467e+01 101 85 54
9.506990e+00 8.121935e+00 -3.224002e+01 184 183 127
8.181988e+00 8.690032e+00 -3.375003e+01 206 197 101
1.027793e+01 9.130259e+00 -3.387229e+01 113 110 57
9.440357e+00 1.100763e+01 -3.801351e+01 248 247 141
7.186585e-01 1.067492e+00 -7.459660e+00 187 207 212
-2.117370e+00 1.247183e+00 -8.306508e+00 168 190 206
7.977323e+00 1.036545e+01 -3.714829e+01 139 145 80
7.848620e+00 8.581858e+00 -3.361003e+01 232 224 138
8.054979e+00 8.606906e+00 -3.367783e+01 151 136 38
9.125869e+00 1.034321e+01 -3.689231e+01 152 140 72
8.231544e+00 1.153002e+01 -3.999837e+01 245 228 179
7.810159e+00 1.181083e+01 -4.061953e+01 217 214 147
7.774368e+00 1.310750e+01 -3.919768e+01 236 214 164
7.715230e+00 1.357278e+01 -3.873051e+01 253 251 230
1.024154e+01 8.890874e+00 -3.346749e+01 244 228 137
-1.755536e+00 3.286209e+01 -1.024641e+02 253 251 237
7.622981e+00 1.348867e+01 -3.859453e+01 132 121 89
1.302766e+00 7.470004e-01 -7.516449e+00 166 177 183
-2.631029e+00 9.105300e-01 -8.640518e+00 179 190 200
2.074995e+01 2.126976e+01 -6.070776e+01 191 190 180
-1.142321e+00 1.718741e+00 -7.873428e+00 166 202 238
1.279850e+01 8.842244e+00 -3.197644e+01 179 186 105
1.258909e+00 4.491601e-01 -7.617591e+00 221 227 228
4.838394e-01 1.668244e+00 -7.525226e+00 215 234 251
1.219736e+01 7.351584e+00 -2.953730e+01 151 151 73
1.140141e+01 2.698688e+01 -7.843321e+01 199 196 183
1.140141e+01 2.698688e+01 -7.843321e+01 199 196 183
1.167350e+00 6.198644e-01 -7.554138e+00 159 168 175
1.212201e+00 6.502308e-01 -7.520807e+00 127 128 127
-2.728709e+00 8.403709e-01 -8.769666e+00 180 189 193
-2.819665e+00 8.627478e-01 -8.823100e+00 27 28 28
-2.735645e+00 1.111768e+00 -8.704600e+00 19 19 25
1.298326e+01 8.403414e+00 -3.119352e+01 124 116 69
1.061031e+01 9.422393e+00 -3.421274e+01 204 210 124
1.261729e+00 6.412325e-01 -7.518293e+00 162 169 181
1.326143e+00 6.624810e-01 -7.494482e+00 162 170 181
2.517695e+00 7.030713e-01 -7.769743e+00 45 49 51
-2.954461e+00 7.158621e-01 -8.858553e+00 138 136 131
1.215761e+00 6.988051e-01 -7.504439e+00 166 176 185
-3.358321e+00 1.038246e+00 -8.950822e+00 107 116 118
-3.251614e+00 1.060392e+00 -8.869427e+00 72 76 75
-2.659720e+00 1.121334e+00 -8.651903e+00 253 254 251
1.148253e+01 7.106874e+00 -2.933025e+01 202 206 121
1.113014e+01 7.567659e+00 -3.054049e+01 122 131 88
1.152649e+01 8.056961e+00 -3.100173e+01 192 187 128
1.206504e+01 8.234035e+00 -3.141302e+01 158 174 85
1.256242e+01 8.171482e+00 -3.069352e+01 218 215 141
1.236336e+01 8.753341e+00 -3.214887e+01 119 127 78
9.381176e+00 9.610893e+00 -3.518976e+01 100 106 57
1.308413e+01 8.913388e+00 -3.192222e+01 200 198 118
1.308413e+01 8.913388e+00 -3.192222e+01 200 198 118
1.254736e+01 9.697496e+00 -3.391695e+01 188 186 116
-1.978466e+00 3.761128e-01 -8.263660e+00 198 176 165
4.307075e-01 7.139064e-01 -7.832738e+00 67 68 68
-2.763437e+00 8.143566e-01 -8.796501e+00 174 183 187
2.128509e+00 1.145019e+00 -7.236265e+00 187 171 189
1.180910e+01 7.216957e+00 -2.964035e+01 113 118 63
1.180910e+01 7.216957e+00 -2.964035e+01 113 118 63
1.267253e+01 7.754960e+00 -3.021601e+01 217 211 138
1.316274e+01 8.154316e+00 -3.127791e+01 77 63 54
1.259529e+01 8.185833e+00 -3.121508e+01 230 219 164
1.311139e+01 8.228338e+00 -3.085156e+01 89 91 57
1.266766e+01 8.564543e+00 -3.184141e+01 228 219 132
-2.972426e+01 4.628058e+01 -1.371265e+02 200 196 185
-7.634321e-01 1.506247e+00 -7.761020e+00 80 105 134
1.225292e+01 7.096226e+00 -2.927328e+01 213 212 138
1.158832e+01 8.272234e+00 -3.157164e+01 211 207 135
1.191102e+01 8.335340e+00 -3.163320e+01 229 223 139
1.187769e+01 9.320314e+00 -3.335931e+01 232 236 138
8.637867e+00 1.039885e+01 -3.708132e+01 168 189 85
1.267826e+01 9.600042e+00 -3.385337e+01 218 219 115
1.314326e+01 9.496416e+00 -3.324717e+01 227 218 159
-1.115977e+00 2.468571e+00 -8.098235e+00 177 202 218
1.482173e+00 5.436833e-01 -7.534753e+00 20 19 27
1.108039e+00 5.350027e-01 -7.622088e+00 250 248 236
-2.222720e+00 7.913170e-01 -8.566263e+00 105 106 106
1.505280e+00 7.947589e-01 -7.445013e+00 27 31 47
1.382526e+00 9.173225e-01 -7.424615e+00 28 29 36
4.709314e-01 1.083980e+00 -7.533169e+00 231 240 240
1.054170e+01 7.835173e+00 -3.139941e+01 231 223 152
1.044459e+01 7.866523e+00 -3.149776e+01 212 208 138
1.027793e+01 9.130259e+00 -3.387229e+01 113 110 57
1.255909e+01 8.941660e+00 -3.235535e+01 220 215 138
1.286779e+01 8.962796e+00 -3.216825e+01 137 142 73
1.286779e+01 8.962796e+00 -3.216825e+01 137 142 73
1.186883e+01 9.633727e+00 -3.434259e+01 226 213 139
1.174543e+01 9.742183e+00 -3.434665e+01 112 121 60
1.271450e+01 9.651032e+00 -3.374794e+01 161 156 89
1.106504e+01 1.039002e+01 -3.600802e+01 110 105 63
9.440357e+00 1.100763e+01 -3.801351e+01 248 247 141
9.933536e+00 1.166264e+01 -3.990070e+01 201 200 123
8.459587e+00 1.222697e+01 -4.061288e+01 255 255 251
-9.739332e+00 1.880981e+01 -5.441047e+01 255 253 246
1.403224e+00 4.551645e-01 -7.570265e+00 132 139 146
1.403224e+00 4.551645e-01 -7.570265e+00 132 139 146
-2.597048e+00 6.602160e-01 -8.786565e+00 208 213 211
-2.707512e+00 6.794557e-01 -8.802527e+00 223 229 225
-8.305853e-01 3.551678e-01 -2.095502e+00 158 157 150
8.200873e+00 8.911718e+00 -3.420262e+01 152 127 66
7.986790e+00 1.009570e+01 -3.681013e+01 243 242 130
7.794777e+00 1.045379e+01 -3.757350e+01 233 232 131
1.065355e+01 9.887477e+00 -3.515678e+01 220 225 135
9.380108e+00 1.045889e+01 -3.682298e+01 236 223 101
9.353661e+00 1.065564e+01 -3.739182e+01 238 233 130
2.174243e+01 1.973722e+01 -6.407748e+01 159 166 131
1.125253e+00 4.982648e-01 -7.625788e+00 146 144 144
1.020223e+00 6.119296e-01 -7.598063e+00 199 197 184
1.495375e+00 7.978405e-01 -7.474428e+00 67 76 86
-2.865650e+00 9.764545e-01 -8.833847e+00 136 131 111
-2.788441e+00 1.096334e+00 -8.738320e+00 203 196 170
-3.589333e+00 2.081053e+00 -9.023410e+00 249 254 251
6.156957e-02 1.952622e+00 -7.636741e+00 190 204 209
-1.220072e+00 2.426994e+00 -8.104829e+00 96 120 135
8.018776e+00 1.250919e+01 -3.957494e+01 255 255 223
-1.044529e+01 1.921798e+01 -5.540607e+01 95 90 84
8.473871e-03 1.176188e+00 -6.699417e+00 189 210 224
-4.919057e-01 1.301011e+00 -7.743338e+00 194 210 222
-1.809357e+00 1.535324e+00 -8.428795e+00 164 187 211
-2.631029e+00 9.105300e-01 -8.640518e+00 179 190 200
-2.626116e+00 1.730106e+00 -8.490435e+00 191 214 237
2.482208e+01 1.947661e+01 -5.885238e+01 234 232 219
1.922858e+00 7.643401e-01 -7.377388e+00 171 183 190
-7.726629e-02 1.755468e+00 -7.398078e+00 255 255 255
2.641865e+01 1.837956e+01 -5.653154e+01 135 139 138
1.292093e+01 8.273764e+00 -3.172395e+01 179 170 109
-3.360115e+01 4.553711e+01 -1.447304e+02 150 152 147
-4.733460e+01 5.465890e+01 -1.712707e+02 180 177 167
1.324757e+00 5.092878e-01 -7.573537e+00 11 10 11
-2.213300e+00 8.924470e-01 -8.531675e+00 65 69 68
1.183724e+00 8.943456e-01 -7.474768e+00 8 12 11
1.322452e+00 9.042041e-01 -7.442278e+00 14 14 19
1.298818e+01 8.067427e+00 -3.068315e+01 113 109 62
1.368788e+01 8.996707e+00 -3.228722e+01 211 202 139
-1.830421e-01 2.427085e+00 -8.106653e+00 105 128 167
2.552793e+01 1.632970e+01 -5.091568e+01 221 219 205
2.725000e+01 1.811871e+01 -5.631490e+01 135 137 138
2.581531e+01 1.842508e+01 -5.748381e+01 219 215 203
-3.667318e+01 4.894400e+01 -1.519469e+02 246 243 232
2.511169e+01 1.919196e+01 -5.832035e+01 233 231 218
2.552891e+01 1.922823e+01 -5.673076e+01 214 213 195
2.358941e+01 2.044479e+01 -5.720255e+01 162 158 155
2.436853e+01 2.018781e+01 -5.625555e+01 148 152 151
1.412654e+00 4.788138e-01 -7.538883e+00 221 225 223
1.383038e+00 5.623761e-01 -7.582491e+00 151 158 164
1.435257e+00 6.468166e-01 -7.487747e+00 209 215 219
-2.630771e+00 9.190949e-01 -8.688100e+00 182 189 198
7.066832e-01 8.610428e-01 -7.598794e+00 140 147 151
-2.827870e+00 1.106034e+00 -8.746866e+00 254 255 254
-2.827870e+00 1.106034e+00 -8.746866e+00 254 255 254
5.123714e-02 1.923810e+00 -7.647600e+00 75 92 113
1.399039e+01 6.889826e+00 -2.813701e+01 198 181 121
1.151110e+00 8.362777e-01 -7.512435e+00 194 204 211
-2.307692e+00 1.126609e+00 -8.471150e+00 74 80 83
1.338185e+01 7.036526e+00 -2.854382e+01 128 134 78
1.338185e+01 7.036526e+00 -2.854382e+01 128 134 78
1.172952e+01 7.754004e+00 -3.046983e+01 166 164 90
1.310532e+01 8.055481e+00 -3.035970e+01 188 194 93
8.753158e+00 9.116073e+00 -3.408724e+01 192 210 96
1.454352e+01 8.219294e+00 -3.020486e+01 202 190 120
8.025437e+00 1.214634e+01 -4.041162e+01 105 97 74
2.373092e+01 1.438500e+01 -4.693400e+01 183 189 102
-3.346169e+01 4.770835e+01 -1.503790e+02 229 226 211
-1.719328e+00 -6.398566e-01 -4.439746e+00 132 128 120
1.360426e+00 4.424886e-01 -7.588979e+00 140 151 159
1.556376e+00 5.452972e-01 -7.500386e+00 31 32 42
1.215761e+00 6.988051e-01 -7.504439e+00 166 176 185
1.254749e+00 7.502702e-01 -7.472765e+00 168 178 187
1.254749e+00 7.502702e-01 -7.472765e+00 168 178 187
1.042619e+00 8.546589e-01 -7.508451e+00 159 159 156
1.042619e+00 8.546589e-01 -7.508451e+00 159 159 156
2.279963e+00 1.171110e+00 -7.288650e+00 255 255 252
-9.465601e-01 1.552891e+00 -7.821830e+00 244 250 251
-1.639171e-01 1.684505e+00 -7.297648e+00 179 193 201
1.298201e+01 6.300299e+00 -2.710184e+01 153 166 102
1.246071e+01 6.397405e+00 -2.752307e+01 142 140 90
1.338961e+01 6.850567e+00 -2.854432e+01 211 208 147
1.284454e+01 7.264777e+00 -2.919358e+01 202 199 120
1.071265e+01 8.042698e+00 -3.153161e+01 215 208 126
1.335266e+01 7.640832e+00 -2.967245e+01 198 204 108
-7.389920e-01 2.756484e+00 -9.928087e+00 190 193 154
9.307958e+00 1.003243e+01 -3.613589e+01 199 215 110
-5.448500e+01 4.722722e+01 -1.683975e+02 124 121 75
1.629790e+01 1.003887e+01 -3.364210e+01 199 199 111
2.589564e+01 1.608719e+01 -5.163305e+01 81 88 68
2.679146e+01 1.742688e+01 -5.567402e+01 212 213 192
-2.698917e+01 4.421280e+01 -1.321721e+02 201 199 188
7.633617e+00 1.355699e+01 -3.901590e+01 119 110 104
-2.832743e+01 4.839999e+01 -1.346576e+02 237 235 222
-2.689620e+00 9.472901e-01 -8.698190e+00 182 193 197
-2.405809e+00 9.920710e-01 -8.577947e+00 205 214 220
1.239479e+00 9.316934e-01 -7.438408e+00 186 199 211
-2.201498e+00 1.624090e+00 -8.241635e+00 79 101 133
1.141289e+01 6.748145e+00 -2.869517e+01 210 212 133
1.032521e+01 7.280999e+00 -3.040027e+01 197 197 122
1.383321e+01 6.964530e+00 -2.837446e+01 133 131 62
1.323520e+01 7.271799e+00 -2.905623e+01 115 110 70
1.312082e+01 7.527825e+00 -2.958023e+01 106 111 70
-1.879256e+01 1.550817e+01 -5.990107e+01 86 92 56
1.414580e+01 7.678640e+00 -2.942888e+01 210 206 111
1.344103e+01 7.930626e+00 -3.012618e+01 86 74 43
1.427985e+01 7.819716e+00 -2.954052e+01 112 101 44
1.416321e+01 7.898952e+00 -2.964327e+01 194 198 107
1.416321e+01 7.898952e+00 -2.964327e+01 194 198 107
1.351231e+01 8.132119e+00 -3.047568e+01 176 168 93
1.067818e+01 8.943113e+00 -3.359856e+01 234 223 144
1.493302e+01 8.166501e+00 -2.985649e+01 187 177 99
-1.673790e+01 1.570287e+01 -5.759802e+01 72 73 53
-9.733416e+01 8.430576e+01 -2.849092e+02 182 178 166
-1.167534e+00 2.462191e+00 -8.087475e+00 176 203 221
2.626310e+01 1.659246e+01 -5.261786e+01 220 224 202
1.110974e+00 2.880835e-01 -7.621728e+00 93 95 93
4.039659e-01 4.263222e-01 -8.241815e+00 84 83 78
-2.617005e+00 7.227255e-01 -8.815999e+00 19 25 21
1.189483e+00 8.594509e-01 -7.482012e+00 24 30 45
1.203104e+01 6.391709e+00 -2.767773e+01 168 165 115
1.401211e+01 7.117500e+00 -2.828685e+01 146 150 91
1.216889e+01 7.492063e+00 -2.970750e+01 118 115 73
-1.832283e+01 1.507859e+01 -5.893511e+01 193 190 135
-2.403167e+01 1.744677e+01 -6.781674e+01 246 210 161
1.299251e+01 7.752717e+00 -2.983488e+01 187 180 110
1.443940e+01 7.659230e+00 -2.940394e+01 193 193 95
-2.498818e+01 1.775401e+01 -6.722316e+01 89 87 45
1.397067e+01 8.010295e+00 -2.984124e+01 204 207 124
1.397067e+01 8.010295e+00 -2.984124e+01 204 207 124
1.320358e+01 8.272709e+00 -3.074514e+01 211 216 127
-1.544034e+01 1.485635e+01 -5.484591e+01 138 128 103
1.454482e+01 8.475199e+00 -3.077504e+01 178 177 99
1.480164e+01 8.261512e+00 -2.978230e+01 106 87 41
1.187769e+01 9.320314e+00 -3.335931e+01 232 236 138
1.447618e+01 9.353560e+00 -3.227350e+01 211 194 124
1.404994e+01 9.732470e+00 -3.318429e+01 187 149 75
-1.096651e+00 2.428572e+00 -8.066527e+00 60 73 86
-1.047563e+01 1.938854e+01 -5.550286e+01 99 92 84
-1.057125e+01 2.001549e+01 -5.552725e+01 109 101 86
-2.645663e+00 -3.211855e-01 -5.879833e+00 168 169 163
-2.510901e+00 4.618269e-01 -8.747275e+00 118 118 116
-2.954345e+00 7.141103e-01 -8.858851e+00 144 142 137
-2.483862e+00 7.656153e-01 -8.752036e+00 53 51 73
1.417904e+00 6.974094e-01 -7.470808e+00 99 102 116
-2.209523e+00 1.002865e+00 -8.505554e+00 75 81 81
2.418171e+00 1.170228e+00 -7.404042e+00 254 254 253
2.385725e+00 1.350806e+00 -7.337432e+00 107 107 142
-9.697166e-01 1.520935e+00 -7.828252e+00 150 158 182
1.233813e+01 6.148541e+00 -2.693372e+01 224 229 231
1.275286e+01 6.122507e+00 -2.676958e+01 218 214 212
1.326135e+01 6.076227e+00 -2.640893e+01 134 124 113
1.322100e+01 6.152857e+00 -2.673083e+01 114 99 100
6.818828e-02 1.887771e+00 -7.613090e+00 62 76 126
1.166446e+01 7.535115e+00 -3.028525e+01 211 206 134
1.317710e+01 7.342161e+00 -2.916151e+01 190 186 102
8.229163e+00 8.398254e+00 -3.327087e+01 230 226 126
1.376468e+01 7.453121e+00 -2.899412e+01 129 129 72
1.017237e+01 8.416330e+00 -3.277737e+01 218 218 111
1.349734e+01 7.700416e+00 -2.971043e+01 154 154 84
1.079264e+01 8.278912e+00 -3.192400e+01 219 214 136
8.590586e+00 8.718608e+00 -3.361631e+01 210 214 130
1.497946e+01 7.749535e+00 -2.933388e+01 148 140 71
9.336729e+00 8.998896e+00 -3.411493e+01 205 187 133
1.357682e+01 8.011329e+00 -3.006090e+01 206 211 120
1.319683e+01 8.526740e+00 -3.137682e+01 174 185 95
9.246994e+00 9.824398e+00 -3.584337e+01 223 215 130
1.433763e+01 8.565534e+00 -3.079424e+01 177 170 101
9.307485e+00 1.004925e+01 -3.593895e+01 211 214 121
-5.773466e+01 5.029609e+01 -1.783541e+02 87 87 37
-7.320570e+01 6.130626e+01 -2.136171e+02 108 121 69
1.401622e+01 9.588344e+00 -3.316203e+01 219 188 97
-9.522438e+00 1.717082e+01 -5.490952e+01 255 249 246
-1.413327e+00 -8.092463e-01 -3.737291e+00 83 85 84
-1.483530e+00 -7.320304e-01 -4.045690e+00 173 170 158
4.876698e-01 7.752697e-01 -7.662726e+00 48 53 56
4.726293e-01 1.068773e+00 -7.527568e+00 219 230 224
1.138444e+00 1.949521e+00 -8.226486e+00 86 89 110
1.176961e+01 6.633723e+00 -2.806568e+01 128 143 69
1.237289e+01 6.988422e+00 -2.874509e+01 104 109 52
1.120241e+01 7.458926e+00 -3.027870e+01 190 185 130
1.114490e+01 7.519936e+00 -3.045739e+01 110 118 65
1.143354e+01 7.461560e+00 -3.009930e+01 112 103 46
1.277175e+01 7.334049e+00 -2.927479e+01 155 143 62
9.966311e+00 7.951203e+00 -3.167649e+01 221 215 135
-2.325546e+01 1.618469e+01 -6.455496e+01 122 104 74
1.365005e+01 7.393155e+00 -2.917984e+01 220 202 139
8.357169e+00 8.355620e+00 -3.282549e+01 176 158 108
8.893353e+00 8.477466e+00 -3.314177e+01 235 223 147
8.631216e+00 8.519015e+00 -3.319630e+01 234 229 149
1.462192e+01 7.468827e+00 -2.882880e+01 140 141 64
-2.460903e+01 1.716367e+01 -6.647001e+01 233 242 175
1.407444e+01 7.597718e+00 -2.914514e+01 209 201 111
1.383334e+01 7.779761e+00 -2.964071e+01 217 216 140
-2.460617e+01 1.765052e+01 -6.725641e+01 61 66 25
1.290244e+01 8.284909e+00 -3.102294e+01 92 79 50
1.282595e+01 8.373245e+00 -3.134793e+01 221 216 148
-1.704097e+01 1.534690e+01 -5.719310e+01 189 187 140
-1.704097e+01 1.534690e+01 -5.719310e+01 189 187 140
-1.737174e+01 1.567634e+01 -5.796026e+01 72 67 41
9.397653e+00 9.527073e+00 -3.498087e+01 111 112 70
1.021257e+01 9.414278e+00 -3.440315e+01 227 233 146
7.986790e+00 1.009570e+01 -3.681013e+01 243 242 130
-1.614252e+01 1.569732e+01 -5.676061e+01 55 55 29
1.487967e+01 8.460369e+00 -3.042768e+01 209 204 139
-1.542745e+01 1.567093e+01 -5.646324e+01 250 239 167
-1.542745e+01 1.567093e+01 -5.646324e+01 250 239 167
-6.660208e+01 5.350635e+01 -1.915834e+02 194 173 112
1.410661e+01 8.947855e+00 -3.157683e+01 196 199 120
1.406970e+01 9.126588e+00 -3.188839e+01 148 141 66
1.406970e+01 9.126588e+00 -3.188839e+01 148 141 66
1.530935e+01 9.111204e+00 -3.155932e+01 134 122 52
1.229910e+01 1.014549e+01 -3.504643e+01 222 214 134
1.229910e+01 1.014549e+01 -3.504643e+01 222 214 134
-7.633097e+01 6.334648e+01 -2.189612e+02 214 210 184
-5.485896e+01 5.100321e+01 -1.756930e+02 234 229 198
1.521289e+01 9.479288e+00 -3.240965e+01 154 146 81
-1.065060e+00 2.415953e+00 -8.066000e+00 113 130 140
-1.516834e+00 -8.009455e-01 -3.771164e+00 71 80 41
-1.539320e+00 -7.352597e-01 -4.034262e+00 94 95 90
-3.859464e+00 2.354976e-01 -8.242444e+00 72 75 73
1.139718e+00 4.836199e-01 -7.617167e+00 139 137 137
1.028246e+00 7.483051e-01 -7.562506e+00 231 225 212
1.128709e+00 7.658246e-01 -7.514250e+00 108 122 133
1.507768e+00 7.688936e-01 -7.429929e+00 183 196 204
1.495375e+00 7.978405e-01 -7.474428e+00 67 76 86
-1.067868e+00 1.189641e+00 -7.950750e+00 33 39 68
2.137699e+00 1.166202e+00 -7.245513e+00 255 245 114
1.157439e+01 6.331142e+00 -2.753037e+01 161 154 130
1.274148e+01 6.093521e+00 -2.646312e+01 154 148 115
-2.297146e+01 1.477953e+01 -6.187535e+01 197 187 132
1.274693e+01 7.043358e+00 -2.869582e+01 152 160 75
9.959117e+00 7.675402e+00 -3.126662e+01 157 150 79
1.053019e+01 7.928643e+00 -3.151627e+01 101 91 52
-2.353176e+01 1.685637e+01 -6.676377e+01 242 233 177
1.001583e+01 8.186653e+00 -3.219333e+01 103 99 41
1.001583e+01 8.186653e+00 -3.219333e+01 103 99 41
-2.375151e+01 1.720963e+01 -6.724981e+01 254 227 175
-1.677435e+01 1.409996e+01 -5.497819e+01 219 214 165
-1.677435e+01 1.409996e+01 -5.497819e+01 219 214 165
1.191154e+01 7.987115e+00 -3.087111e+01 160 165 78
-1.820251e+01 1.538377e+01 -5.889521e+01 226 230 172
1.433452e+01 7.788539e+00 -2.957652e+01 96 87 30
-1.590204e+01 1.437152e+01 -5.477627e+01 73 76 37
-1.590204e+01 1.437152e+01 -5.477627e+01 73 76 37
1.329215e+01 8.037329e+00 -3.045359e+01 111 110 45
1.041928e+01 8.772835e+00 -3.320287e+01 234 227 111
8.482249e+00 9.196806e+00 -3.476806e+01 92 83 41
-1.617415e+01 1.480567e+01 -5.576766e+01 71 69 31
-1.770250e+01 1.566649e+01 -5.843406e+01 66 59 27
9.840902e+00 9.273434e+00 -3.433504e+01 152 138 83
9.840902e+00 9.273434e+00 -3.433504e+01 152 138 83
-1.671887e+01 1.555125e+01 -5.736044e+01 55 63 26
1.012373e+01 9.401450e+00 -3.443372e+01 117 117 49
1.012373e+01 9.401450e+00 -3.443372e+01 117 117 49
-1.500819e+01 1.494274e+01 -5.473697e+01 233 243 146
1.163836e+01 9.119549e+00 -3.322385e+01 141 143 55
-1.553847e+01 1.542449e+01 -5.592665e+01 244 251 184
-1.578410e+01 1.587497e+01 -5.675650e+01 224 232 179
-5.066283e+01 4.631043e+01 -1.642085e+02 216 235 160
-7.272027e+01 5.864467e+01 -2.077096e+02 80 100 26
-5.810014e+01 5.044559e+01 -1.781765e+02 212 241 125
-1.503865e+01 1.688533e+01 -5.945026e+01 128 123 71
-6.385796e+01 5.557160e+01 -1.947133e+02 77 89 21
1.320532e+01 9.691198e+00 -3.373389e+01 223 212 149
-5.089805e+01 4.851233e+01 -1.698412e+02 251 245 231
1.165613e+01 1.003622e+01 -3.485205e+01 141 145 57
2.179854e+01 1.973081e+01 -6.388375e+01 244 248 220
-9.586427e+00 1.875479e+01 -5.397130e+01 234 227 215
-9.586427e+00 1.875479e+01 -5.397130e+01 234 227 215
-1.058181e+01 1.973601e+01 -5.524106e+01 93 83 82
-4.193045e-01 2.056478e-01 -4.588277e-01 0 255 0
-4.187031e-01 2.047142e-01 -5.088154e-01 255 255 0
-1.456045e+00 2.323925e-01 -5.794399e-01 255 0 0
-1.449629e+00 2.326296e-01 -6.290259e-01 255 255 0
