ply
format ascii 1.0
element vertex 919
property float x
property float y
property float z
property uchar diffuse_red
property uchar diffuse_green
property uchar diffuse_blue
end_header
-1.146877e+00 -2.189636e+00 3.495611e+00 100 94 96
-4.318663e+01 1.515833e+01 -7.341946e+01 168 156 83
-4.440436e+01 1.576704e+01 -7.471310e+01 111 78 42
-4.440436e+01 1.576704e+01 -7.471310e+01 111 78 42
-4.675796e+01 1.659642e+01 -7.509831e+01 61 43 23
-4.575907e+01 1.732469e+01 -7.545864e+01 32 34 13
-5.189629e+01 2.045911e+01 -8.102187e+01 81 82 38
-5.314491e+01 2.196841e+01 -8.304172e+01 78 90 31
-3.113413e+00 -3.671639e+00 5.563592e+00 240 237 230
-1.193775e+00 -2.788649e+00 3.326193e+00 198 208 211
-1.275934e+00 -2.773815e+00 3.527767e+00 231 227 215
-1.061101e+00 -2.119827e+00 3.323270e+00 110 103 100
-1.619856e+00 -1.163348e+00 3.026562e+00 29 22 21
-1.664270e+00 -1.142075e+00 3.113154e+00 51 47 40
-1.330428e+00 -2.954507e+00 3.724441e+00 196 208 208
-7.798252e-01 -2.704621e+00 2.485675e+00 214 208 198
-1.181096e+00 -2.703313e+00 3.333949e+00 205 208 201
-1.347967e+00 -2.739506e+00 3.715999e+00 231 227 216
-1.127228e+00 -2.298023e+00 3.334650e+00 232 205 189
-1.020681e+00 -2.155728e+00 3.212473e+00 103 92 88
-1.021514e+00 -2.156751e+00 3.211277e+00 103 92 88
-7.255893e-01 -2.014171e+00 2.504323e+00 199 180 160
-1.070495e+00 -2.084573e+00 3.353365e+00 230 220 213
-9.957111e-01 -2.051778e+00 3.200135e+00 89 84 81
-2.205276e+00 -1.326092e+00 3.804082e+00 114 113 100
-2.205276e+00 -1.326092e+00 3.804082e+00 114 113 100
-8.853122e-01 -2.136622e+00 2.919037e+00 252 251 246
-8.026564e-01 -2.372481e+00 2.550297e+00 101 116 156
-1.625918e+00 -1.217187e+00 2.955273e+00 19 23 35
-1.061398e+00 -2.499684e+00 3.100205e+00 236 235 233
-2.832657e+02 4.346429e+01 -2.126827e+02 178 160 123
9.622221e-01 -5.745407e+00 5.890280e+00 190 174 149
-2.772276e+02 4.134811e+01 -2.068502e+02 179 168 118
-1.112524e+00 -2.783555e+00 3.146486e+00 228 229 229
-9.027344e-01 -2.542571e+00 2.690155e+00 246 247 240
-1.266261e+00 -2.654779e+00 3.540276e+00 245 241 237
-6.061852e-01 -1.600189e+00 -1.063310e+00 7 7 8
-8.926414e-01 -1.976751e+00 2.967902e+00 252 251 251
-5.310464e+01 1.129413e+01 -6.063081e+01 190 182 138
-1.400483e+02 2.552771e+01 -1.281807e+02 242 234 194
-1.418743e+02 2.575330e+01 -1.290353e+02 247 230 185
-1.918320e+02 3.085310e+01 -1.567237e+02 199 197 143
-3.169969e+02 4.845580e+01 -2.185447e+02 248 249 251
-2.371330e+01 3.531448e+00 -6.600695e+00 117 135 129
-2.634669e+00 -1.686407e+00 4.865341e+00 175 179 165
-2.622607e+00 -1.680902e+00 4.885382e+00 175 179 165
-1.180408e+00 -2.940644e+00 3.365329e+00 210 206 184
-9.696773e-01 -2.782773e+00 2.897416e+00 205 209 176
-1.313048e+00 -2.425139e+00 3.743398e+00 224 195 167
-1.255481e+00 -2.405130e+00 3.610437e+00 223 199 161
-1.189509e+00 -2.373341e+00 3.453046e+00 169 64 59
-1.023538e+00 -2.269734e+00 3.085270e+00 93 34 38
-1.306939e+00 -2.451623e+00 3.709768e+00 161 64 67
-1.240272e+00 -2.372481e+00 3.592697e+00 176 58 65
-9.276069e-01 -2.353006e+00 2.818848e+00 125 128 101
-1.078992e+00 -2.145562e+00 3.352345e+00 199 196 182
-2.814647e+01 4.197375e+00 -3.426374e+01 216 211 186
-7.987812e-01 -2.480225e+00 2.520220e+00 33 35 36
-8.109411e-01 -2.449743e+00 2.562058e+00 112 112 104
-8.109411e-01 -2.449743e+00 2.562058e+00 112 112 104
-5.112296e+01 1.059691e+01 -6.066371e+01 156 147 129
-1.009704e+02 2.134606e+01 -1.060707e+02 250 251 237
-2.642792e+01 1.921973e+01 -7.097724e+01 85 86 31
-4.999286e+01 2.012237e+01 -8.101540e+01 255 230 152
-3.420509e+02 2.497836e+01 -1.295528e+02 85 99 119
-3.415657e+02 1.882735e+01 -1.373733e+02 45 44 51
-3.426220e+02 2.053440e+01 -1.437793e+02 60 66 76
-3.338133e+02 2.387654e+01 -1.442195e+02 255 255 255
-3.419420e+02 2.813905e+01 -1.405253e+02 95 112 133
-3.377430e+02 2.241297e+01 -1.417592e+02 239 241 226
-3.413748e+02 2.332129e+01 -1.311747e+02 254 255 251
-3.214788e+02 4.777899e+01 -2.127535e+02 110 126 160
-5.206220e+02 4.093933e+01 -2.484479e+02 214 214 190
-5.232243e+02 4.113312e+01 -2.497549e+02 214 214 190
-5.304794e+02 4.340142e+01 -2.577491e+02 71 78 101
-3.448425e+02 2.156266e+01 -1.254610e+02 254 255 252
-1.179443e+00 -2.538463e+00 3.408193e+00 253 252 248
-3.677351e+02 2.076914e+01 -1.428472e+02 202 206 188
-3.461261e+02 2.460426e+01 -1.531907e+02 38 50 60
-3.455502e+02 2.130526e+01 -1.240696e+02 255 253 250
-1.326385e+00 -2.611891e+00 3.726173e+00 255 254 254
-5.798503e+01 5.212178e-01 -6.001032e+00 203 199 187
-3.413391e+02 1.741073e+01 -1.249739e+02 192 194 180
-5.227413e+02 4.400000e+01 -2.503865e+02 144 163 175
-1.198059e+00 -2.671608e+00 3.382630e+00 118 123 154
-3.519324e+00 -2.306764e+00 6.109879e+00 255 253 246
-3.259244e+02 1.908938e+01 -1.334705e+02 179 180 179
-3.372619e+02 2.023240e+01 -1.341905e+02 209 210 197
-3.384798e+02 2.285871e+01 -1.396034e+02 92 84 104
-3.455078e+02 2.086849e+01 -1.230482e+02 255 245 243
-3.243706e+02 4.117739e+01 -2.053376e+02 68 66 54
-2.595370e+01 2.040801e+01 -7.344164e+01 205 227 130
-1.183598e+01 2.081636e+00 3.250194e+00 117 158 176
-3.599235e+02 2.492427e+01 -1.004795e+02 225 209 177
-5.609579e+01 7.527341e+00 -5.108864e+01 116 114 109
-3.420585e+02 2.804948e+01 -1.329025e+02 254 255 255
-4.551779e+00 -2.523445e+00 6.829942e+00 170 168 174
-5.055697e+00 -2.179073e+00 6.900755e+00 215 131 84
-3.468977e+02 2.553029e+01 -1.288369e+02 85 101 127
-3.398745e+02 3.094944e+01 -1.451507e+02 255 254 255
-3.672673e+02 2.896868e+01 -1.068010e+02 237 220 191
-4.107929e+00 -2.449529e+00 6.547427e+00 233 231 222
-2.620534e+00 -1.733234e+00 4.727396e+00 47 56 80
-5.310514e+00 -2.296353e+00 6.861644e+00 209 203 200
-9.062860e+00 7.005564e-01 2.198568e+00 155 180 210
-1.063934e+01 6.132816e-01 3.123733e+00 63 69 75
-2.221067e+02 -3.975970e+00 -3.173685e+01 255 226 198
-1.657499e+02 2.748713e+01 -1.409121e+02 252 253 248
-3.425370e+02 2.277021e+01 -1.292130e+02 255 255 255
-3.359516e+02 2.888463e+01 -1.387021e+02 76 92 126
-3.408914e+02 2.933280e+01 -1.408887e+02 76 92 126
-7.069698e+01 2.468054e+01 -8.596042e+01 124 73 69
-3.406898e+02 2.591877e+01 -8.607369e+01 71 63 47
-2.155600e+00 -3.149500e+00 4.087637e+00 31 31 35
-1.170449e+00 -2.176284e+00 3.656752e+00 254 254 254
-1.165965e+00 -2.174923e+00 3.660047e+00 254 254 254
-1.800192e+00 -1.246857e+00 3.450495e+00 30 32 50
-1.140617e+00 4.657508e-01 -7.948268e-01 42 40 51
-1.249154e+01 2.186376e+00 -2.994277e+00 63 104 132
-1.856911e+02 2.957471e+01 -1.521577e+02 254 253 242
-3.460477e+02 2.359349e+01 -1.288421e+02 111 115 138
-2.729655e+02 9.039350e+00 -4.822602e+01 201 198 143
-2.543593e+02 7.312491e+00 -3.606869e+01 219 208 147
-3.589040e+02 2.625690e+01 -9.580951e+01 121 117 94
-3.408546e+02 2.583835e+01 -8.709097e+01 224 208 174
-2.697151e+00 -3.131028e+00 5.757408e+00 255 202 63
-3.725794e+00 -2.412478e+00 6.562906e+00 237 235 222
-1.829314e+00 -1.418488e+00 3.399010e+00 132 147 164
-4.326980e+00 -1.672701e+00 6.785650e+00 19 21 47
-1.894195e+02 -4.843206e+00 -2.375200e+01 111 122 67
-3.433992e+02 2.554702e+01 -1.269164e+02 95 101 107
-3.872394e+00 -3.849534e+00 6.301500e+00 222 227 223
-6.791380e+00 -3.955084e+00 6.140527e+00 200 217 228
-1.749374e+00 -1.336778e+00 3.316767e+00 27 33 60
-4.326749e+00 -2.154827e+00 6.716256e+00 255 254 252
-2.356317e+02 -3.767612e+00 -2.823716e+01 153 148 120
-2.352826e+02 -3.558457e+00 -2.725371e+01 135 128 100
-3.433588e+02 2.025158e+01 -1.239996e+02 217 217 215
-3.447053e+02 2.026777e+01 -1.245332e+02 217 217 215
-3.447939e+02 2.061381e+01 -1.218633e+02 255 255 250
-3.348640e+02 2.756915e+01 -1.416365e+02 127 125 156
-3.166351e+02 4.820855e+01 -2.175476e+02 124 125 158
-1.024989e+00 -2.892169e+00 3.001681e+00 222 220 208
-1.221237e+00 -2.256165e+00 3.641101e+00 238 233 223
-4.504724e+00 -1.004651e+00 7.876541e-01 175 175 170
-3.285445e+00 -2.438374e+00 5.504155e+00 199 205 211
-9.763548e-01 -2.356781e+00 3.174588e+00 238 239 237
-4.604839e+00 1.380064e+00 -1.917087e+00 154 201 243
-1.778907e-01 -1.590599e+00 3.776507e-01 166 93 62
-1.298787e+00 -2.679038e+00 3.765350e+00 161 157 167
-1.708264e+00 -3.135574e+00 3.957566e+00 21 21 21
-1.708264e+00 -3.135574e+00 3.957566e+00 21 21 21
-5.220011e-01 -2.167437e+00 -2.758025e-01 167 180 186
-5.412515e+00 -2.094530e+00 -8.404594e+00 44 51 66
-1.978953e+00 -1.331245e+00 3.642359e+00 195 197 182
-8.769513e+01 -6.795612e+00 -2.494031e-01 164 60 63
-5.746210e+01 7.316510e+00 -4.796896e+01 226 215 181
-8.316546e-01 -2.283381e+00 7.866595e-01 17 19 18
-7.926578e-01 -2.273353e+00 7.549908e-01 17 19 18
-7.717715e-01 -1.868902e+00 2.390413e+00 106 106 111
-9.355202e+01 -1.005884e+01 1.168498e+01 183 173 148
-9.012069e+01 -8.068211e+00 6.017049e+00 105 107 92
-9.546165e+01 -1.092572e+01 1.462348e+01 184 175 146
-8.779960e+01 -7.187082e+00 1.394752e+00 243 113 99
-5.518816e-01 -2.107564e+00 4.401088e-01 255 253 254
-9.030961e+01 -8.742860e+00 6.916291e+00 152 146 124
-8.826234e+01 -7.746824e+00 3.138338e+00 255 128 115
-7.555431e+00 1.568519e+00 -7.676732e-01 130 164 199
-1.317539e+01 5.269178e-01 4.025533e+00 107 125 148
-3.117237e+00 -3.730621e+00 5.455204e+00 178 190 190
-4.918604e-01 -5.933935e-01 -1.259981e+01 239 240 239
-4.870473e-01 -5.942378e-01 -1.259538e+01 239 240 239
-5.327072e-01 -2.109655e+00 -1.919845e-02 119 125 124
-2.678464e+00 -1.598489e+00 4.942304e+00 44 46 59
-1.107908e+00 -6.003590e-01 1.575949e+00 29 29 43
-1.087384e+00 -5.952284e-01 1.594856e+00 29 29 43
-8.670892e+01 -8.186928e+00 3.227031e+00 103 99 81
-9.493098e+01 -1.059541e+01 1.382344e+01 108 106 91
-9.478674e+01 -1.035328e+01 1.331065e+01 166 158 134
-8.256105e+00 2.118291e+00 -3.795236e+00 163 208 250
-1.327736e+01 -8.937294e+00 1.577553e+01 194 166 137
-1.341422e+00 -1.004691e+00 -1.143075e+01 219 219 214
-1.198012e+00 -2.073591e+00 3.607643e+00 90 94 106
-1.841985e+00 -1.366994e+00 3.556653e+00 23 23 31
-1.695385e+00 -1.235401e+00 3.154870e+00 21 27 35
-1.861641e+00 -1.160976e+00 3.546920e+00 34 36 49
-1.653221e+00 -1.015367e+00 3.032123e+00 25 29 37
-9.557557e-01 -4.817640e-01 1.308642e+00 141 136 136
-8.999125e+01 -8.403292e+00 4.784977e+00 192 178 149
-8.847449e+01 -7.576859e+00 1.466356e+00 235 124 110
-8.823907e+01 -7.394380e+00 9.525514e-01 246 120 106
-1.471482e+02 -9.676811e+00 2.502582e+00 179 186 114
-1.253114e+01 3.194383e+00 -4.831569e-01 55 90 121
-3.205845e+02 4.510202e+01 -2.302255e+02 64 63 74
3.898000e+00 -3.088263e+00 -3.208461e+00 247 249 247
3.894140e+00 -3.090214e+00 -3.210966e+00 247 249 247
-1.229183e+00 -3.017480e+00 3.484790e+00 241 241 237
-1.053967e+00 -2.918584e+00 3.119818e+00 238 240 237
-3.870792e+00 -3.932707e+00 6.195644e+00 74 79 81
-2.058049e+00 -3.115762e+00 3.959732e+00 18 19 21
-1.145524e+00 -2.646647e+00 3.231425e+00 242 242 244
-7.803655e-01 -1.722041e+00 2.385452e+00 81 82 93
-2.629442e+00 -2.036040e+00 4.842924e+00 255 254 254
-1.012990e+00 -8.969461e-01 1.418280e+00 71 69 90
-2.651400e+00 -1.691716e+00 5.036034e+00 254 254 255
-9.552750e+01 -1.030295e+01 8.536231e+00 85 79 71
-9.734699e+01 -1.075099e+01 1.591313e+01 72 72 60
-9.952257e+01 -1.126826e+01 1.782439e+01 114 107 81
-9.594543e+01 -9.110407e+00 1.073470e+01 203 190 146
-8.973703e+01 -6.830864e+00 2.138316e+00 150 131 92
-7.659682e+00 1.941667e+00 -1.963444e+00 27 35 64
-8.965619e+01 -5.800914e+00 -1.640862e+00 108 100 68
-9.544700e+01 -6.874132e+00 2.574143e+00 166 155 110
-1.336554e+02 -1.198768e+01 1.740106e+01 253 253 253
-5.579306e+01 8.171068e+00 -5.249866e+01 197 186 155
-3.155269e+02 4.664965e+01 -2.275731e+02 115 116 114
9.695103e-01 -5.739223e+00 5.890872e+00 190 174 149
-3.815175e+00 -3.485816e+00 4.142972e+00 111 117 115
-8.397587e-01 -2.339261e+00 2.678863e+00 253 251 242
-4.151067e+00 -2.509812e+00 6.693046e+00 151 149 152
-1.756803e+01 3.423701e-01 -1.919681e+01 60 67 77
-1.802694e+01 3.311404e-01 -1.899677e+01 150 153 116
-1.826127e+01 2.741514e-01 -1.887147e+01 203 203 183
-1.454929e+01 2.075536e+00 -2.476628e+01 159 155 139
-1.609008e+01 1.483329e+00 -2.266963e+01 121 120 118
-1.423724e+01 2.261010e+00 -2.541539e+01 164 164 161
-9.737653e+01 -1.205898e+01 1.694984e+01 38 39 29
-9.205693e+01 -8.231834e+00 7.022683e+00 109 108 74
-8.968121e+01 -5.686790e+00 -2.175111e+00 80 68 45
-8.434392e+00 2.521133e+00 -4.258205e+00 176 196 207
-1.481370e+02 -9.477309e+00 -2.255079e-01 43 44 30
-1.481721e+02 -9.481770e+00 -2.288850e-01 43 44 30
-1.326966e+01 -8.917733e+00 1.566813e+01 26 28 20
-1.129806e+00 -2.969054e+00 3.163534e+00 234 232 223
-9.065529e-01 -2.793181e+00 2.788585e+00 119 116 128
-1.062851e+00 -2.825270e+00 3.073864e+00 119 118 138
-1.124864e-02 -4.021813e-01 -1.351711e+01 219 217 209
-3.074581e-01 -1.564510e+00 3.868997e-01 224 140 29
-1.782313e+00 -1.154233e+00 3.382336e+00 32 32 62
-5.533404e-01 -3.009458e-01 -6.290731e-01 204 204 194
-1.942693e+01 -3.680634e-01 -1.656502e+01 162 173 169
-1.671872e+01 9.182923e-01 -2.079376e+01 220 217 208
-1.474581e+01 2.025800e+00 -2.469289e+01 193 192 174
-6.556672e+01 -7.458572e+00 3.407595e+00 144 141 133
-2.825669e+01 4.058111e+00 -3.385885e+01 215 216 203
-9.065348e+01 -1.062161e+01 1.196129e+01 57 58 55
-8.935747e+01 -8.972929e+00 5.660462e+00 124 123 67
-9.648345e+01 -1.126221e+01 1.579779e+01 74 71 60
-9.480205e+01 -9.333030e+00 1.069895e+01 136 134 93
-9.304153e+01 -8.361497e+00 8.047272e+00 209 197 140
-8.959247e+01 -6.709845e+00 1.576621e+00 125 96 65
-8.424129e+00 2.536979e+00 -4.099934e+00 122 150 179
-1.485094e+02 -9.401237e+00 -6.640881e-01 49 48 43
-5.860986e+01 7.459843e+00 -4.832465e+01 242 228 202
-6.226464e+01 7.800053e+00 -4.843828e+01 140 157 80
-6.226464e+01 7.800053e+00 -4.843828e+01 140 157 80
-5.896152e+01 1.012424e+01 -5.523437e+01 194 187 132
-3.919872e+00 -3.855958e+00 6.323069e+00 60 61 64
-1.017808e+00 -2.644497e+00 2.961348e+00 242 243 237
-8.871685e-01 -2.340370e+00 2.772522e+00 248 244 243
-8.951035e-01 -2.342962e+00 2.770889e+00 248 244 243
2.219923e-01 -6.646102e-01 -4.325647e-01 189 197 195
-2.201760e+00 -1.561019e+00 3.759035e+00 117 129 153
-1.481962e+00 -1.159555e+00 2.495888e+00 119 136 155
-1.638726e+00 -1.163588e+00 3.018102e+00 18 18 22
-1.739454e+00 -1.144963e+00 3.296233e+00 38 30 51
-9.184445e+01 -7.236456e+00 3.862443e+00 212 193 152
-3.170429e+02 4.654399e+01 -2.260733e+02 125 114 125
-3.276515e+02 2.061461e+01 -1.260820e+02 167 164 144
-1.045847e+00 -2.861430e+00 3.047126e+00 210 210 179
-1.264569e+00 -2.724659e+00 3.785586e+00 230 218 196
-2.401032e+00 -3.322167e+00 4.243605e+00 14 14 14
-2.722931e+00 -2.162572e+00 5.064935e+00 158 168 178
-2.084248e+00 -1.341096e+00 3.598086e+00 186 186 179
-1.097078e+00 -2.781011e+00 3.106236e+00 193 198 193
-2.597081e+00 -1.616946e+00 4.604507e+00 136 141 138
-2.705445e+00 -2.946464e+00 5.679396e+00 150 80 33
-2.257651e+00 -3.186559e+00 4.060260e+00 15 15 15
-1.022219e+00 -1.970096e+00 3.212629e+00 51 51 49
-1.151000e+00 -2.961422e+00 3.282490e+00 187 180 172
-1.273231e+00 -2.854195e+00 3.458702e+00 198 210 206
-1.215008e+00 -2.351406e+00 3.552521e+00 242 181 170
-1.036095e+00 -2.238734e+00 3.132149e+00 189 119 107
-5.503710e-01 -2.097927e+00 4.218832e-01 253 255 254
-5.503710e-01 -2.097927e+00 4.218832e-01 253 255 254
-3.832509e+00 -3.196974e+00 6.685572e+00 128 76 51
-8.543891e-01 -2.795282e+00 2.620580e+00 156 151 145
-1.048479e+00 -2.740507e+00 3.014833e+00 182 189 185
-7.670958e-01 -2.663614e+00 2.454352e+00 72 68 68
-7.666307e-01 -2.663344e+00 2.454890e+00 72 68 68
-1.173602e+00 -2.412652e+00 3.414261e+00 230 216 199
-1.660564e+00 -1.293132e+00 3.036908e+00 40 43 45
-1.001607e+00 -5.495861e-01 1.444547e+00 236 236 225
-1.663374e+00 -1.139925e+00 3.114601e+00 33 29 26
-1.262336e+00 -3.054805e+00 3.490332e+00 225 222 208
-1.322815e+00 -2.920887e+00 3.588445e+00 203 205 202
-8.448734e-01 -2.818252e+00 2.630904e+00 205 201 189
-1.368924e+00 -2.813590e+00 3.776548e+00 228 223 201
-1.025162e+00 -2.752273e+00 2.954857e+00 167 178 172
-9.742353e-01 -2.428784e+00 2.913927e+00 214 204 181
-1.342611e+00 -2.387154e+00 3.838613e+00 229 208 184
-1.345737e+00 -2.385899e+00 3.836523e+00 229 208 184
-1.277229e+00 -2.333448e+00 3.687463e+00 217 202 176
-8.200077e-01 -2.036126e+00 2.783796e+00 89 80 77
-1.773567e+00 -1.250693e+00 3.347026e+00 26 26 27
-1.106720e+01 3.711214e-01 3.649489e+00 56 61 57
-1.179489e+00 -3.017279e+00 3.342490e+00 225 217 207
-1.235142e+00 -2.977523e+00 3.487351e+00 229 229 219
-1.412930e+00 -2.990846e+00 3.801449e+00 207 213 202
-1.041394e+00 -2.932718e+00 3.025459e+00 221 215 201
-1.124705e+00 -2.943065e+00 3.226330e+00 106 97 97
-1.130471e+00 -2.942875e+00 3.225028e+00 106 97 97
-1.001526e+00 -2.905440e+00 2.938919e+00 221 216 204
-1.139387e+00 -2.917851e+00 3.269882e+00 226 225 217
-9.727542e-01 -2.884198e+00 2.870885e+00 213 213 197
-1.093030e+00 -2.894028e+00 3.156533e+00 108 104 100
-1.092186e+00 -2.892937e+00 3.156354e+00 108 104 100
-9.467734e-01 -2.870227e+00 2.817312e+00 212 213 194
-9.894966e-01 -2.873531e+00 2.911922e+00 99 85 90
-9.259712e-01 -2.853525e+00 2.764336e+00 206 204 193
-1.037449e+00 -2.854036e+00 3.046885e+00 221 222 212
-1.163162e+00 -2.838647e+00 3.257614e+00 192 203 196
-1.163162e+00 -2.838647e+00 3.257614e+00 192 203 196
-7.884847e-01 -2.773265e+00 2.459172e+00 211 199 192
-7.773108e-01 -2.772606e+00 2.464234e+00 211 199 192
-9.867100e-01 -2.670700e+00 2.896975e+00 168 176 174
-1.072578e+00 -2.586825e+00 3.088150e+00 218 215 198
-1.268359e+00 -2.573122e+00 3.625410e+00 226 214 194
-1.386344e+00 -2.500362e+00 3.915769e+00 181 108 102
-1.337528e+00 -2.456342e+00 3.809030e+00 177 96 88
-1.322440e+00 -2.440908e+00 3.767206e+00 186 96 88
-1.255247e+00 -2.404662e+00 3.608055e+00 238 211 188
-1.330047e+00 -2.393558e+00 3.801865e+00 181 102 95
-1.329728e+00 -2.394228e+00 3.802425e+00 181 102 95
-1.265024e+00 -2.386155e+00 3.639545e+00 173 92 89
-1.253170e+00 -2.351827e+00 3.623179e+00 231 202 179
-1.253170e+00 -2.351827e+00 3.623179e+00 231 202 179
-1.155505e+00 -2.336979e+00 3.399707e+00 235 204 184
-1.024065e+00 -2.268458e+00 3.084436e+00 167 85 85
-1.102265e+00 -2.276793e+00 3.282401e+00 232 197 179
-1.222882e+00 -2.282076e+00 3.658775e+00 224 223 208
-1.118153e+00 -2.263639e+00 3.312094e+00 177 86 89
-1.196702e+00 -2.265200e+00 3.587969e+00 107 96 92
-5.064996e-01 -2.010870e+00 -7.095517e-02 126 125 115
-1.056390e+00 -2.089812e+00 3.318233e+00 77 70 74
-8.716992e-01 -2.030963e+00 2.829572e+00 120 105 90
-1.731999e+00 -1.199318e+00 3.284769e+00 127 125 119
1.434226e+00 -1.087959e+00 6.140532e+00 60 65 60
-1.306504e+00 -3.038366e+00 3.636583e+00 130 124 118
-1.305363e+00 -3.038451e+00 3.636878e+00 130 124 118
-1.141912e+00 -2.991585e+00 3.241821e+00 225 221 208
-1.289939e+00 -3.012570e+00 3.613284e+00 233 231 223
-1.253873e+00 -2.988602e+00 3.539220e+00 228 231 221
-1.072326e+00 -2.908573e+00 3.094509e+00 104 97 91
-1.041713e+00 -2.905580e+00 3.036603e+00 224 223 213
-1.056924e+00 -2.898839e+00 3.060794e+00 109 104 101
-1.102746e+00 -2.867343e+00 3.179764e+00 228 222 215
-9.602538e-01 -2.836221e+00 2.857185e+00 106 97 95
-9.602538e-01 -2.836221e+00 2.857185e+00 106 97 95
-1.004617e+00 -2.831844e+00 2.964536e+00 223 227 217
-8.804531e-01 -2.799833e+00 2.703624e+00 92 84 84
-8.807108e-01 -2.799811e+00 2.704080e+00 92 84 84
-8.385174e-01 -2.764540e+00 2.602558e+00 214 216 203
-1.092368e+00 -2.788919e+00 3.068921e+00 189 197 193
-8.521546e-01 -2.745832e+00 2.650377e+00 213 215 208
-7.966462e-01 -2.479092e+00 2.521115e+00 98 94 82
-1.366700e+00 -2.486878e+00 3.864944e+00 180 109 100
-1.295626e+00 -2.430187e+00 3.691758e+00 236 206 184
-1.374255e+00 -2.425342e+00 3.911022e+00 173 103 95
-1.374255e+00 -2.425342e+00 3.911022e+00 173 103 95
-1.276691e+00 -2.388182e+00 3.665073e+00 243 210 188
-1.295309e+00 -2.383392e+00 3.709238e+00 242 206 184
-1.341993e+00 -2.379328e+00 3.876691e+00 223 212 183
-1.141922e+00 -2.343220e+00 3.351356e+00 168 94 90
-1.116022e+00 -2.330377e+00 3.294293e+00 159 110 96
-1.116022e+00 -2.330377e+00 3.294293e+00 159 110 96
-1.146038e+00 -2.325179e+00 3.355984e+00 175 101 96
-1.208295e+00 -2.321055e+00 3.522570e+00 169 86 80
-1.258252e+00 -2.291056e+00 3.769919e+00 154 144 128
-1.153783e+00 -2.247895e+00 3.503466e+00 218 210 201
-1.106101e+00 -2.105910e+00 3.460843e+00 210 212 200
-9.438953e-01 -2.048743e+00 3.058660e+00 99 98 95
-9.408232e-01 -2.049358e+00 3.061789e+00 99 98 95
-2.792715e-01 -1.664822e+00 5.454432e-01 56 47 38
-4.320177e-01 -1.627996e+00 1.793537e-01 70 52 43
-1.730565e+00 -1.079631e+00 3.253744e+00 34 27 25
-1.053940e+00 -4.868628e-01 1.495675e+00 145 145 140
-6.241390e-01 -1.291578e+00 -3.261682e-01 138 80 22
-1.205748e+01 1.380611e-01 3.853890e+00 73 82 91
-1.245034e+00 -2.314786e+00 5.092327e-01 25 27 26
-4.469446e-01 -1.697298e+00 -1.139323e+00 225 222 216
-4.215367e-01 -1.716432e+00 -1.127749e+00 225 222 216
-1.265162e+00 -6.847646e-01 4.448992e-01 189 190 185
-9.081641e-01 -8.109781e-01 1.315117e+00 255 255 255
-1.776991e+00 -4.981706e-02 -1.858757e+00 95 82 82
-1.037194e+00 -2.923263e+00 3.220269e+00 231 232 228
-5.229029e-01 -1.602305e+00 -1.011685e+00 17 17 19
-1.202463e+00 -2.207534e+00 3.615829e+00 249 249 250
-1.014274e+00 3.180263e-01 -7.016470e-01 219 217 205
-1.252705e+01 3.190374e+00 -4.683392e-01 55 92 126
-1.248668e+00 -2.996248e+00 3.351273e+00 220 222 219
-1.238328e+00 -3.017375e+00 3.477867e+00 236 237 235
-1.015696e+00 -2.725254e+00 2.876320e+00 106 120 151
-1.376344e+00 -2.679960e+00 3.826402e+00 233 234 220
-1.388157e+00 -2.337901e+00 4.064068e+00 250 250 245
-2.628761e+00 -2.049574e-01 -2.948525e+00 132 135 136
-4.562289e+00 -1.721588e+00 6.640484e+00 38 40 60
-1.115602e+00 4.753920e-01 -7.688091e-01 30 33 49
-1.165477e+01 -2.133355e-02 4.195819e+00 48 68 100
-1.290732e+00 -3.068402e+00 3.574062e+00 226 227 219
-1.267027e+00 -2.748337e+00 3.517191e+00 240 235 233
-9.394256e-01 -2.084781e+00 3.011736e+00 255 254 255
-3.540500e+00 -2.297702e+00 6.036127e+00 243 240 233
-1.722354e+00 -1.251814e+00 3.268758e+00 38 36 49
-5.048742e+00 -2.375219e+00 -7.029586e+00 106 95 91
-1.096198e+00 -2.649490e+00 3.129910e+00 238 239 229
-1.355900e+00 -2.702379e+00 3.809486e+00 240 241 234
-6.288988e-01 -1.754913e+00 -5.686613e-01 12 12 12
-9.843775e-01 -2.248168e+00 2.994080e+00 201 195 183
-1.356712e+00 -9.123500e-01 1.881751e+00 25 27 26
-1.028343e+00 -2.730341e+00 2.899221e+00 67 79 92
-6.995377e-01 -2.709007e+00 2.286643e+00 76 78 74
-3.927044e+00 -3.832697e+00 6.333891e+00 55 67 61
-9.868910e-01 -2.198264e+00 3.056986e+00 190 183 169
-3.948068e+00 -3.776461e+00 6.239891e+00 119 120 105
-9.797571e-01 -9.574586e-01 1.460899e+00 230 230 229
-1.055217e+00 4.499474e-01 -8.150787e-01 131 135 147
-1.059476e+00 -2.945918e+00 3.086561e+00 217 207 204
-1.307799e+00 -3.096268e+00 3.650789e+00 222 213 205
-7.770468e-01 -2.711035e+00 2.489626e+00 219 214 211
-1.381866e+00 -2.758296e+00 3.795713e+00 90 104 112
-1.381866e+00 -2.758296e+00 3.795713e+00 90 104 112
-1.061833e+00 -2.220435e+00 3.239951e+00 156 107 96
-1.808204e+00 -1.163535e+00 3.397777e+00 34 39 35
-9.609260e-01 -2.870171e+00 2.810086e+00 214 206 204
-1.003430e+00 -2.905593e+00 2.937757e+00 214 209 202
-1.123292e+00 -2.975452e+00 3.196447e+00 213 207 200
-8.797227e-01 -2.765534e+00 2.699072e+00 215 213 211
-1.176837e+00 -2.941849e+00 3.363081e+00 220 219 214
-1.200406e+00 -2.949780e+00 3.388271e+00 224 220 212
-1.313102e+00 -3.002345e+00 3.667991e+00 228 223 220
-1.024708e+00 -2.751992e+00 2.957996e+00 142 158 163
-1.072345e+00 -2.538253e+00 3.137964e+00 192 191 191
-1.367698e+00 -2.487128e+00 3.864930e+00 154 97 93
-1.116124e+00 -2.264726e+00 3.312403e+00 136 80 76
-9.933817e-01 -2.156099e+00 3.050933e+00 185 176 158
-1.145570e+00 -2.241106e+00 3.469626e+00 66 65 55
-1.196914e+00 -2.263568e+00 3.588673e+00 83 80 72
-9.788999e-01 -8.930579e-01 1.484823e+00 198 200 197
-4.198961e+00 -2.504540e+00 6.612226e+00 152 147 135
-1.656097e+00 -1.106171e+00 3.124189e+00 35 36 32
-1.668025e+00 -1.105207e+00 3.155612e+00 181 176 166
-1.798232e+00 -1.196303e+00 3.431984e+00 218 204 194
-1.068913e+01 5.551884e-01 3.195002e+00 52 58 62
-7.974562e-01 -2.788479e+00 2.506417e+00 214 205 202
-1.020720e+00 -2.920790e+00 2.981800e+00 214 206 201
-8.801043e-01 -2.794785e+00 2.668011e+00 99 102 97
-1.348828e+00 -2.842315e+00 3.678620e+00 187 181 177
-1.031704e+00 -2.495581e+00 3.037333e+00 172 174 168
-1.042384e+00 -2.218076e+00 3.154483e+00 139 79 71
-9.677720e-01 -2.131065e+00 3.093056e+00 74 74 75
-9.977681e-01 -2.061032e+00 3.190023e+00 76 77 74
-1.001309e+00 -2.061165e+00 3.189305e+00 76 77 74
-1.178762e+00 -2.159216e+00 3.604952e+00 86 87 82
-1.178762e+00 -2.159216e+00 3.604952e+00 86 87 82
-1.135761e+00 -2.119942e+00 3.520657e+00 217 211 211
-1.135761e+00 -2.119942e+00 3.520657e+00 217 211 211
-2.618379e+00 -1.686468e+00 4.891129e+00 232 229 223
-1.750701e+00 -1.131416e+00 3.340274e+00 238 227 220
-1.734416e+00 -1.094028e+00 3.299888e+00 211 202 204
-1.782247e+00 -1.107629e+00 3.348657e+00 43 47 38
-9.124523e+00 1.343344e+00 4.704124e-01 63 62 60
-3.401908e+02 2.221228e+01 -1.338428e+02 255 255 255
-3.483033e+02 1.854534e+01 -1.191494e+02 254 254 255
-3.465160e+02 1.845659e+01 -1.183738e+02 254 254 255
-3.513705e+02 1.506766e+01 -1.255736e+02 27 28 32
-3.490997e+02 1.503093e+01 -1.219491e+02 253 254 254
-3.461860e+02 1.701246e+01 -1.249263e+02 252 242 234
-3.486872e+02 1.675560e+01 -1.202320e+02 68 67 89
-3.490926e+02 1.739057e+01 -1.221949e+02 91 87 115
-3.441285e+02 1.867893e+01 -1.248300e+02 218 219 211
-3.437668e+02 2.362279e+01 -1.280464e+02 113 127 145
-3.437668e+02 2.362279e+01 -1.280464e+02 113 127 145
-6.341270e+02 5.412878e+01 -2.456293e+02 124 116 97
-3.498524e+02 1.294323e+01 -1.208021e+02 77 69 76
-5.835891e+02 4.842401e+01 -2.921528e+02 57 63 72
-5.807568e+02 4.883406e+01 -2.926802e+02 78 81 94
-3.466580e+02 2.206380e+01 -1.219883e+02 255 253 253
-3.468099e+02 1.408599e+01 -1.217844e+02 247 254 251
-3.475514e+02 1.577669e+01 -1.185082e+02 253 254 252
-3.456243e+02 1.731788e+01 -1.227661e+02 255 251 242
-5.221179e+02 4.311977e+01 -2.474996e+02 193 210 211
-9.201552e+00 1.323931e+00 6.436083e-01 33 43 52
-3.409659e+02 2.693427e+01 -1.355461e+02 101 116 140
-3.515840e+02 1.239449e+01 -1.190101e+02 111 111 73
-5.826340e+02 5.367435e+01 -2.249122e+02 179 169 139
-2.729774e+02 -1.188725e+00 -5.019427e+01 58 55 43
-3.433473e+02 2.817949e+01 -1.334007e+02 254 255 255
-3.435066e+02 2.819707e+01 -1.334500e+02 254 255 255
-5.965197e+02 5.323633e+01 -2.834395e+02 255 255 255
-3.132765e+02 3.525740e+00 -7.187501e+01 86 89 68
-3.552414e+02 1.422647e+01 -1.199843e+02 227 211 155
-3.494472e+02 3.325471e+01 -1.479163e+02 86 86 94
-4.382588e+02 3.179885e+01 -1.451842e+02 203 188 156
-5.939694e+02 6.336812e+01 -2.330352e+02 151 138 112
-3.414574e+02 2.066285e+01 -1.304861e+02 216 213 209
-3.737599e+02 2.784977e+01 -1.076248e+02 92 82 70
-3.485990e+02 1.331467e+01 -1.222652e+02 97 98 92
-3.767754e+02 1.051488e+01 -1.126531e+02 89 79 68
-3.931884e+02 1.244148e+01 -1.212984e+02 195 180 152
-3.928734e+02 1.241259e+01 -1.211817e+02 195 180 152
-3.503940e+02 1.508835e+01 -1.188742e+02 93 93 85
-3.444969e+02 1.941436e+01 -1.255817e+02 255 254 254
-3.732466e+02 2.173317e+01 -1.071554e+02 125 118 91
-3.733832e+02 2.554270e+01 -1.073749e+02 210 208 169
-3.758258e+02 3.064043e+01 -1.068017e+02 244 234 198
-3.774696e+02 2.113778e+01 -1.091258e+02 106 102 67
-4.276551e+02 2.784839e+01 -1.396051e+02 94 92 53
-4.344426e+01 1.572394e+01 -7.460918e+01 237 188 128
-3.377232e+02 2.910306e+01 -1.431217e+02 79 98 131
-1.818627e+02 -1.076597e+01 5.549296e+00 59 56 38
-2.192346e+02 4.284275e+00 -1.424538e+01 209 198 169
-3.388169e+02 3.009214e+01 -1.411493e+02 254 254 253
-1.381341e+00 -2.464384e+00 3.907072e+00 226 169 176
-1.825206e+02 -1.148403e+01 6.053456e+00 171 157 124
-2.191997e+02 -2.493421e+00 -1.647072e+01 25 28 14
-2.201200e+02 4.988325e+00 -1.501420e+01 59 57 44
-2.354234e+02 1.149905e+01 -2.337912e+01 161 146 115
-2.383495e+02 1.558899e+01 -2.064301e+01 192 184 146
-1.515520e+02 -9.169808e+00 -2.097231e+00 59 59 62
-1.638472e+02 -9.050387e+00 1.764148e+01 67 60 32
-2.212696e+02 -3.411884e+00 -1.575684e+01 64 59 44
-2.183602e+02 1.297306e+00 -1.479513e+01 169 165 120
-3.418405e+02 2.956625e+01 -1.413115e+02 77 84 112
-2.368602e+02 8.103728e+00 -2.502203e+01 32 26 13
-2.007784e+02 5.199741e+00 -3.365233e+00 47 45 34
-2.732476e+02 1.421135e+01 -4.640237e+01 181 166 135
-2.380675e+02 1.455849e+01 -2.237978e+01 224 214 206
-2.473080e+00 -1.732769e+00 4.356967e+00 127 135 161
-9.260839e+00 1.219618e+00 7.066990e-01 18 23 28
-1.334036e+02 -1.220003e+01 1.705247e+01 98 102 79
-1.822001e+02 -1.140777e+01 4.892141e+00 156 146 113
-1.642958e+02 -9.484375e+00 1.682725e+01 54 61 39
-2.716275e+02 3.071431e+00 -4.891042e+01 185 183 152
-2.005262e+02 -2.193096e+00 -4.757024e+00 215 208 172
-1.825236e+02 -3.030058e+00 6.672475e+00 79 81 44
-2.366289e+02 2.104225e+00 -2.608075e+01 76 75 32
-2.005572e+02 5.652797e-01 -3.756388e+00 235 223 194
-2.187181e+02 2.411931e+00 -1.427581e+01 69 67 30
-2.375307e+02 4.140068e+00 -2.473155e+01 104 97 66
-2.006918e+02 1.782351e+00 -3.598340e+00 207 198 154
-2.366336e+02 5.736952e+00 -2.472536e+01 229 225 185
-2.184890e+02 4.369618e+00 -1.433814e+01 202 190 159
-2.365368e+02 6.359450e+00 -2.505068e+01 31 31 3
-2.186116e+02 4.472550e+00 -1.330827e+01 73 62 43
-2.187976e+02 4.474711e+00 -1.332087e+01 73 62 43
-2.561732e+02 8.577260e+00 -3.538464e+01 72 62 34
-2.381927e+02 7.637784e+00 -2.487955e+01 165 160 120
-2.184746e+02 6.782495e+00 -1.412369e+01 159 159 132
-2.184746e+02 6.782495e+00 -1.412369e+01 159 159 132
-2.896148e+02 1.574975e+01 -5.639463e+01 103 93 75
-2.725190e+02 1.356769e+01 -4.568521e+01 62 59 37
-2.378637e+02 1.368151e+01 -2.128113e+01 212 203 172
-9.031004e-01 -2.620692e+00 2.699125e+00 254 251 247
-1.336941e+02 -1.172468e+01 1.778589e+01 150 138 138
-1.334445e+02 -1.174390e+01 1.802893e+01 255 253 245
-2.005224e+02 -6.369728e+00 -5.553391e+00 148 139 112
-2.190163e+02 -1.222926e+00 -1.522064e+01 141 138 90
-2.182087e+02 -8.364365e-01 -1.534970e+01 190 186 140
-1.823942e+02 -3.732495e+00 6.780287e+00 82 79 29
-2.365542e+02 1.075340e+00 -2.634233e+01 31 19 2
-2.360765e+02 2.816184e+00 -2.570421e+01 65 59 23
-2.367997e+02 3.845211e+00 -2.563666e+01 68 60 29
-2.364311e+02 4.543871e+00 -2.538832e+01 72 67 42
-2.923762e+02 1.072459e+01 -5.635581e+01 235 229 194
-2.372516e+02 5.665281e+00 -2.436675e+01 118 112 80
-2.004829e+02 3.192007e+00 -4.119755e+00 22 31 1
-2.189040e+02 5.277023e+00 -1.333145e+01 44 37 20
-2.183088e+02 7.200817e+00 -1.424844e+01 202 195 157
-2.190175e+02 8.906789e+00 -1.340413e+01 58 55 28
-7.763732e-01 -2.704960e+00 2.489542e+00 205 206 190
-9.910849e-01 -2.622574e+00 2.896764e+00 202 193 180
-1.385779e+00 -2.413511e+00 3.939754e+00 230 214 183
-1.119398e+00 -3.355715e+00 1.366003e+00 13 13 13
-6.513072e-01 -1.434509e+00 -5.689370e-01 157 82 49
-1.747468e+00 -1.138480e+00 2.911184e+00 190 191 182
-6.014855e-01 -1.875427e+00 4.517862e-02 69 77 79
-1.000592e+00 -9.702018e-01 1.633168e+00 235 235 238
-1.915905e+00 -9.783632e-01 3.341742e+00 255 255 255
-9.813405e+01 -1.271725e+01 1.934989e+01 111 107 88
-3.693050e+00 -3.252890e+00 6.118909e+00 162 101 45
-1.060765e+02 -1.420859e+01 2.508335e+01 58 60 59
-9.152509e+01 -8.945049e+00 7.825229e+00 111 105 89
-3.251800e+00 -3.480632e-02 -3.084555e+00 168 166 152
-1.007146e+02 -1.328516e+01 2.315532e+01 159 155 130
-3.994711e+00 -2.205975e+00 -7.750661e+00 205 202 195
-9.247963e+01 -1.061682e+01 1.151055e+01 102 101 90
-1.024835e+02 -1.390860e+01 2.591193e+01 181 173 152
-9.821000e+01 -1.207547e+01 1.849743e+01 159 152 134
-9.850351e+01 -1.205491e+01 1.927113e+01 95 97 81
-9.381945e+01 -9.964912e+00 1.263584e+01 139 134 120
-9.381945e+01 -9.964912e+00 1.263584e+01 139 134 120
-6.254318e+01 7.311228e+00 -4.720552e+01 149 158 93
-9.741469e+00 -1.120428e+01 -1.697132e+01 248 247 246
-3.454414e-01 -6.516655e-01 -1.274948e+01 128 112 84
-1.235100e+00 -2.718428e+00 3.494392e+00 238 235 227
-7.346493e-01 -2.296600e+00 2.323792e+00 39 39 46
-4.386566e+01 -1.151974e+01 2.164578e+01 121 120 117
-1.016221e+02 -1.438100e+01 2.571319e+01 56 51 46
-8.875399e+00 6.024087e-01 2.591565e+00 160 186 214
-9.715526e+01 -1.226171e+01 1.777609e+01 69 74 55
-9.128449e+01 -9.880276e+00 8.894327e+00 86 79 76
-7.244923e+00 2.135019e+00 -3.270838e+00 148 190 230
-1.527065e+00 -2.281705e+00 4.228708e+00 80 80 95
-7.580688e-01 -1.743588e+00 2.366460e+00 85 91 101
-9.668513e-01 -4.863926e-01 1.309723e+00 83 80 96
-4.247353e+01 -1.147884e+01 2.172582e+01 254 252 239
-4.440527e+01 -1.174087e+01 2.243940e+01 96 95 94
-7.109694e+01 -1.293692e+01 2.348855e+01 62 69 62
-7.109694e+01 -1.293692e+01 2.348855e+01 62 69 62
-1.000464e+02 -1.286494e+01 2.241543e+01 122 119 102
-9.729086e+01 -9.008832e+00 1.016725e+01 205 194 149
-2.985348e+01 -9.706425e+00 1.592762e+01 122 119 111
-2.985348e+01 -9.706425e+00 1.592762e+01 122 119 111
-9.854348e-01 -8.881228e-01 1.435695e+00 57 55 76
-1.030702e+00 -5.307579e-01 1.385700e+00 251 251 252
-4.480071e+01 -1.138859e+01 2.083875e+01 92 92 93
-1.667265e+01 8.732164e-01 -2.055958e+01 216 216 204
-1.465561e+01 2.016041e+00 -2.462709e+01 175 177 163
-6.775162e+01 -1.200501e+01 2.085206e+01 38 42 45
-6.905835e+01 -1.186730e+01 2.025468e+01 109 112 105
-9.544412e+01 -1.512848e+01 3.098055e+01 39 38 38
-9.142200e+01 -1.078396e+01 1.230903e+01 90 94 90
-1.036081e+02 -1.425025e+01 2.664574e+01 59 52 51
-9.981680e+01 -1.286477e+01 2.148664e+01 126 120 107
-9.113807e+01 -7.664428e+00 4.984318e+00 122 123 91
-1.331568e+01 -9.052221e+00 1.614993e+01 201 171 148
-1.193593e+00 -9.820156e-01 -1.160218e+01 233 234 214
-1.333508e+00 -3.134438e+00 3.603809e+00 35 32 58
-5.611850e+00 -2.602552e+00 -6.362048e+00 70 80 64
-1.113874e+00 -2.842780e+00 3.144967e+00 111 116 135
-6.233303e-01 -1.816507e+00 -1.058212e+00 22 21 29
-5.059891e-01 -1.797825e+00 -1.031632e+00 22 21 29
-8.710375e-01 -2.295268e+00 2.739341e+00 112 110 142
-1.785929e+00 -1.153641e+00 3.383430e+00 57 50 99
-1.732433e+01 5.756091e-01 -1.976510e+01 217 213 207
-1.737759e+01 5.722782e-01 -1.979322e+01 217 213 207
-9.456793e+01 -1.516875e+01 3.146482e+01 40 45 46
-1.009012e+02 -1.462661e+01 2.988622e+01 113 112 85
-9.604362e+01 -9.814050e+00 1.267336e+01 147 133 88
-9.732573e+01 -9.818769e+00 1.297180e+01 204 189 145
4.010044e-01 -1.794456e-01 -1.449220e+01 233 231 226
-1.673477e+00 -1.038029e+00 -1.147436e+01 115 112 108
-1.150283e+00 -2.879522e+00 3.259094e+00 124 127 143
-1.356825e+00 -2.938128e+00 3.661587e+00 200 220 227
-1.186931e+00 -2.625876e+00 3.370926e+00 224 235 243
-8.699954e-01 -1.992390e+00 2.876035e+00 244 243 238
-1.667889e+00 -1.311194e+00 3.067723e+00 87 88 115
-1.033771e+00 -8.821421e-01 1.475533e+00 250 251 254
1.524441e+00 -5.855046e-01 2.848399e+00 122 138 161
-1.647858e+01 1.007697e+00 -2.101271e+01 196 198 178
-4.186707e+01 -9.415463e+00 1.366718e+01 43 40 50
-1.006842e+02 -1.158992e+01 1.969437e+01 224 216 163
-1.161047e+02 -1.473259e+01 2.977255e+01 96 81 56
-5.889461e+01 6.778061e+00 -4.844748e+01 219 215 180
-2.441975e+00 -2.152170e+00 5.114815e+00 152 166 168
-2.762685e+00 -1.808386e+00 5.028649e+00 252 251 249
-2.619006e+00 -2.200737e+00 4.873958e+00 163 168 171
-1.152341e+00 -2.303244e+00 3.456534e+00 214 170 160
-1.840396e-01 -1.374426e+00 5.615451e-01 93 51 38
-7.407835e+00 1.486581e+00 -3.713505e-01 115 133 152
-1.238469e+00 -2.258375e+00 3.731833e+00 80 80 76
-2.899733e-01 -1.617603e+00 5.465081e-01 68 45 33
-1.420642e+00 -2.605854e+00 3.948471e+00 208 199 185
-2.173649e+02 -2.088532e+00 -4.048077e+01 164 168 94
-1.384725e+00 -2.546697e+00 3.880824e+00 211 209 196
-2.582843e+00 -3.123896e+00 5.573166e+00 132 73 39
-2.758299e+00 -4.545478e-02 -2.994593e+00 107 105 90
-1.068237e+00 -7.648976e-01 1.650366e+00 40 41 39
-7.813415e+00 1.928154e+00 -2.001599e+00 29 31 33
-2.245025e+02 -1.618298e+00 -4.541662e+01 53 53 48
-2.364725e+02 -2.357517e+00 -2.778633e+01 85 74 60
-1.229402e+00 -2.689453e+00 3.450139e+00 195 186 173
-8.481564e-01 -2.730040e+00 2.611586e+00 37 46 43
-1.280039e+00 -2.993904e+00 3.578418e+00 46 56 49
-1.280039e+00 -2.993904e+00 3.578418e+00 46 56 49
-1.338765e+00 -2.811475e+00 3.683615e+00 201 190 182
-1.138771e+00 -2.263571e+00 3.404942e+00 166 125 113
-8.362447e-01 -2.027709e+00 2.781002e+00 65 66 61
-1.276266e+00 -2.319396e+00 3.817730e+00 86 92 85
-1.276266e+00 -2.319396e+00 3.817730e+00 86 92 85
-8.875101e+00 6.720704e-01 2.428241e+00 47 53 65
-2.247447e+02 -1.435138e+00 -4.506228e+01 120 111 76
-2.397966e+02 -1.173422e-01 -5.322813e+01 153 139 96
-1.469762e+00 -3.281262e+00 2.584369e+00 123 124 114
-1.159522e+00 -3.002427e+00 3.289830e+00 221 211 205
-1.344876e+00 -3.137806e+00 3.739581e+00 98 93 89
-9.061340e-01 -2.807882e+00 2.760333e+00 88 89 83
-3.588534e+00 -3.598322e+00 5.851402e+00 97 99 94
-1.061245e+00 -2.187496e+00 3.311578e+00 77 79 72
-1.080739e+00 -2.196469e+00 3.342239e+00 216 209 206
-1.338323e+00 -2.345522e+00 3.945489e+00 207 197 190
-1.117223e+01 2.980619e-01 3.581976e+00 37 39 38
-2.171163e+02 -2.446862e+00 -4.137956e+01 74 65 41
-2.175043e+02 -2.287860e+00 -4.168295e+01 208 152 114
-2.175043e+02 -2.287860e+00 -4.168295e+01 208 152 114
-2.175164e+02 -2.282925e+00 -4.133338e+01 188 137 100
-2.184344e+02 -2.104496e+00 -4.198544e+01 59 57 29
-2.228889e+02 -8.728151e-01 -3.136990e+01 173 157 131
-2.362432e+02 -2.891264e+00 -2.665763e+01 76 61 33
-2.232190e+02 -3.186103e-01 -3.080094e+01 223 160 132
-1.137517e+00 -2.990758e+00 3.243260e+00 221 219 208
-1.254105e+00 -2.987807e+00 3.537048e+00 228 224 219
-1.302346e+00 -2.781488e+00 3.611935e+00 218 211 210
-6.434947e-01 -1.633531e+00 5.732043e-02 66 51 38
-1.134628e+00 -2.230210e+00 3.445214e+00 215 203 195
-9.115538e-01 -2.028001e+00 2.964892e+00 101 99 89
-2.598800e+00 -2.014480e+00 4.918452e+00 125 127 113
-7.509192e+00 1.586462e+00 -5.801574e-01 109 120 130
-8.885740e+00 7.041361e-01 2.397613e+00 115 126 133
-1.200445e+00 -2.987483e+00 3.366829e+00 215 215 207
-1.273500e+00 -2.857834e+00 3.459109e+00 177 191 193
-1.314393e+00 -2.920873e+00 3.593254e+00 176 189 194
-8.841095e-01 -2.800238e+00 2.702819e+00 90 90 88
-7.507576e-01 -1.166894e+00 -4.112890e-01 126 128 116
-6.807604e-01 -1.142159e+00 -8.277221e-01 152 86 14
-1.049626e+00 1.724885e-01 -5.702566e-01 242 239 233
-1.424738e+00 -2.741662e+00 3.875113e+00 236 235 229
-1.038429e+00 -6.316720e-01 1.240508e+00 252 252 252
-1.034610e+00 3.164452e-01 -6.864651e-01 221 223 220
-1.238190e+00 -3.013788e+00 3.477688e+00 245 246 241
-1.775434e+00 -1.283629e+00 3.377644e+00 45 54 77
-9.094974e-01 -1.232126e+00 -7.065978e-01 195 128 34
-7.953321e-01 -2.027925e-01 -1.013221e+00 209 202 182
-3.542217e+00 -2.296433e+00 6.046064e+00 241 240 234
-1.038452e+01 6.643710e-01 2.955369e+00 73 84 84
-1.395988e+00 -2.894645e+00 3.702361e+00 92 108 120
-1.769652e+00 -1.251023e+00 3.498610e+00 225 229 209
-1.843774e+00 -1.116830e+00 3.474401e+00 70 69 101
-7.116239e+00 -4.267514e+00 5.776598e+00 58 58 61
-3.376233e+02 2.868811e+01 -1.412814e+02 254 254 253
-7.802514e+00 -5.005366e+00 -3.775540e+00 99 92 80
-3.507599e+02 1.849108e+01 -1.198697e+02 254 255 254
-3.373413e+02 2.588566e+01 -1.390749e+02 253 255 253
-2.891659e+02 7.846146e-02 -5.861643e+01 93 79 62
-3.247976e+02 4.522712e+00 -8.169695e+01 66 60 47
-3.249495e+02 4.615481e+00 -7.955838e+01 109 102 70
-3.502293e+02 1.506684e+01 -1.188162e+02 93 93 85
-2.716072e+02 4.851212e+00 -4.854392e+01 186 182 148
-2.237904e+02 -1.393778e+00 -4.574072e+01 72 68 61
-3.094725e+02 2.894972e+00 -7.014786e+01 190 189 150
-6.233007e+02 5.509873e+01 -2.435335e+02 105 102 62
-3.433721e+02 2.681315e+01 -1.324602e+02 83 100 125
-2.378552e+02 1.479182e+01 -2.139377e+01 36 36 40
-2.375577e+02 1.479994e+01 -2.134838e+01 36 36 40
-5.164330e-01 -8.567253e-01 2.541200e+00 19 22 33
-3.777894e+02 3.793338e+01 -1.080092e+02 210 203 195
-3.789888e+02 4.060358e+01 -1.066380e+02 86 72 71
-3.420764e+02 2.542702e+01 -1.349214e+02 78 92 136
-2.915990e+02 1.155755e+01 -5.595989e+01 238 228 195
-3.786157e+02 2.275778e+01 -1.094426e+02 218 212 186
-4.140846e+02 2.823322e+01 -1.291106e+02 189 177 139
-4.300294e+02 3.203246e+01 -1.408415e+02 102 95 77
-2.186730e+02 6.848036e+00 -1.362735e+01 27 30 18
-4.386244e+02 3.913233e+01 -1.433452e+02 215 191 160
-3.082747e+02 1.686923e+00 -7.086673e+01 174 165 142
-4.134188e+02 2.210434e+01 -1.314515e+02 35 36 14
-3.436908e+02 2.506066e+01 -1.335541e+02 124 126 172
-3.422714e+02 2.498149e+01 -1.329650e+02 124 126 172
-2.909996e+02 1.126582e+01 -5.655517e+01 163 147 121
-2.910607e+02 1.253851e+01 -5.630976e+01 182 171 142
-1.337733e+02 -1.172710e+01 1.779427e+01 150 138 138
-4.127877e+02 2.974420e+01 -1.294815e+02 71 59 38
-3.781083e+02 4.237384e+01 -1.067742e+02 135 129 127
-3.781083e+02 4.237384e+01 -1.067742e+02 135 129 127
-3.450480e+02 2.577843e+01 -1.470038e+02 255 254 252
-3.452755e+02 2.577068e+01 -1.470762e+02 255 254 252
-1.455266e+02 -1.476941e+01 2.606570e+01 49 49 42
-1.469549e+02 -1.379209e+01 2.586163e+01 195 196 182
-3.270723e+02 1.748452e+01 -1.378606e+02 154 155 157
-3.513128e+02 2.607483e+01 -1.285632e+02 244 243 239
-3.781064e+02 3.690711e+01 -1.064852e+02 140 136 123
-3.781064e+02 3.690711e+01 -1.064852e+02 140 136 123
-1.637632e+02 -1.342596e+01 1.620809e+01 45 43 34
-1.446436e+02 -1.335258e+01 2.770224e+01 52 51 39
-1.446580e+02 -1.188459e+01 2.814627e+01 71 71 54
-1.446580e+02 -1.188459e+01 2.814627e+01 71 71 54
-1.451724e+02 -8.691228e+00 2.832571e+01 177 171 136
-1.448484e+02 -4.382568e+00 2.888301e+01 224 217 176
-1.449256e+02 -4.378031e+00 2.951378e+01 34 35 25
-3.847245e+02 4.159811e+01 -1.100001e+02 249 245 241
-9.496331e+01 -1.547734e+01 3.085882e+01 33 39 28
-9.723263e+01 -1.133558e+01 1.707122e+01 78 81 74
-1.439457e+02 -1.503394e+01 2.756689e+01 153 146 122
-1.623227e+02 -1.359554e+01 1.555985e+01 142 139 98
-1.448671e+02 -1.367417e+01 2.636849e+01 53 52 58
-1.446927e+02 -9.404909e+00 2.836765e+01 205 200 158
-2.197484e+02 -3.039654e+00 -1.602707e+01 214 210 180
-1.451139e+02 -5.991326e+00 2.965308e+01 198 193 154
-1.451139e+02 -5.991326e+00 2.965308e+01 198 193 154
-1.459672e+02 -3.418771e+00 2.846921e+01 44 50 35
-2.359286e+02 6.533059e+00 -2.435986e+01 185 177 138
-2.373155e+02 6.816731e+00 -2.539696e+01 36 36 23
-2.393135e+02 1.673226e+01 -2.197677e+01 237 239 237
-1.026411e+01 2.546300e+00 -2.296409e+01 210 213 207
-1.632479e+02 -1.362955e+01 1.679068e+01 169 165 136
-1.444130e+02 -1.248493e+01 2.741066e+01 115 110 80
-1.452013e+02 -7.083057e+00 2.955018e+01 109 107 81
-1.449219e+02 -4.938342e+00 2.931895e+01 49 46 35
-1.998856e+02 5.941670e-01 -4.336031e+00 77 84 46
-3.466886e+02 2.173557e+01 -1.234321e+02 89 98 124
-1.444733e+02 -3.057324e+00 2.872761e+01 213 206 165
-1.004138e+02 -1.439161e+01 2.886512e+01 146 147 101
-1.331157e+02 -1.250690e+01 1.716953e+01 252 251 243
-1.442504e+02 -1.428161e+01 2.698970e+01 52 53 42
-1.439262e+02 -1.428597e+01 2.828334e+01 43 39 21
-1.447095e+02 -1.209781e+01 2.753679e+01 44 41 29
-1.455652e+02 -1.217403e+01 2.763419e+01 44 41 29
-1.449287e+02 -1.105801e+01 2.771479e+01 192 189 156
-1.448189e+02 -1.039467e+01 2.833560e+01 203 193 169
-1.823760e+02 -2.757055e+00 6.302722e+00 174 174 145
-3.400491e+02 2.288376e+01 -1.414446e+02 254 254 227
-2.732969e+02 7.985262e+00 -4.856168e+01 218 214 168
-1.640121e+02 -2.581269e+00 1.843312e+01 83 89 57
-2.364461e+02 9.638658e+00 -2.288482e+01 204 196 141
-1.621662e+02 -1.378596e+01 1.608453e+01 166 162 115
-1.819267e+02 -1.104569e+01 5.793343e+00 78 71 52
-3.580954e+02 2.197724e+01 -1.581194e+02 84 96 115
-2.367910e+02 8.020892e-01 -2.595633e+01 233 220 193
-4.081657e+02 2.912356e+01 -1.817333e+02 105 109 108
-3.406792e+02 2.170111e+01 -1.351299e+02 214 213 209
-3.406792e+02 2.170111e+01 -1.351299e+02 214 213 209
-1.823247e+02 -2.063587e+00 6.403313e+00 217 214 179
-1.640524e+02 -3.124615e+00 1.835260e+01 93 97 56
-4.045902e+02 3.168970e+01 -1.785407e+02 61 57 78
-3.397256e+02 2.668618e+01 -1.416091e+02 254 254 251
-2.572039e+02 6.634710e+00 -3.625382e+01 199 187 134
-1.446830e+02 -3.547225e+00 3.002669e+01 79 74 55
-2.187755e+02 8.888223e+00 -1.339507e+01 73 69 33
-6.826419e-01 -2.486681e+00 2.232529e+00 14 14 14
-2.725486e+02 -8.944589e-01 -4.877039e+01 127 112 83
-2.906491e+02 -3.184292e-01 -5.922867e+01 53 53 40
-2.543012e+02 -3.558685e+00 -3.955554e+01 141 134 87
-2.732929e+02 -1.696623e+00 -5.057293e+01 124 106 74
-3.119642e+02 1.615387e+00 -7.245255e+01 62 65 41
-2.909663e+02 -1.615012e-01 -6.032768e+01 54 51 38
-2.914600e+02 -3.927151e-01 -5.890196e+01 155 138 105
-2.732389e+02 9.831525e-01 -4.955268e+01 113 101 70
-2.911281e+02 -6.101110e-02 -5.983167e+01 150 130 109
-2.911281e+02 -6.101110e-02 -5.983167e+01 150 130 109
-2.729908e+02 6.947826e-02 -4.846795e+01 201 177 146
-3.128987e+02 3.803600e+00 -7.048583e+01 149 133 98
-2.728935e+02 1.077569e+00 -4.853936e+01 58 61 40
-3.118086e+02 2.370973e+00 -7.147658e+01 138 127 92
-2.917299e+02 8.656261e-01 -5.993838e+01 132 125 100
-2.912897e+02 9.339150e-01 -5.942279e+01 65 69 51
-2.915069e+02 1.157831e+00 -6.002757e+01 62 61 43
-2.732051e+02 -2.659493e-01 -4.943013e+01 62 64 42
-2.912171e+02 1.311627e+00 -5.925911e+01 76 78 63
-2.914702e+02 1.791914e+00 -5.960387e+01 172 156 128
-2.914702e+02 1.791914e+00 -5.960387e+01 172 156 128
-2.736784e+02 3.214910e-01 -4.937336e+01 57 57 31
-2.920994e+02 3.155936e+00 -5.978273e+01 140 133 105
-2.729651e+02 1.361824e+00 -4.844739e+01 66 67 42
-3.135971e+02 2.062233e+00 -7.277067e+01 129 129 73
-2.917114e+02 9.062392e-01 -6.040384e+01 114 106 86
-2.916845e+02 1.719485e+00 -5.892779e+01 167 155 122
-2.925713e+02 1.685714e+00 -5.866382e+01 152 141 108
-2.732632e+02 6.266436e-01 -4.875623e+01 63 66 36
-2.731381e+02 7.064694e-01 -4.850000e+01 127 115 92
-3.115338e+02 2.087565e+00 -7.077837e+01 84 70 40
-2.914817e+02 4.989572e-01 -5.964196e+01 115 102 85
-2.914817e+02 4.989572e-01 -5.964196e+01 115 102 85
-2.729875e+02 4.465183e-01 -4.892344e+01 114 100 71
4.753519e-01 -4.815879e-02 8.988541e-01 248 249 246
-1.194448e+00 -2.458930e+00 -2.179750e+00 10 10 10
-3.786671e+00 -2.914945e+00 6.437945e+00 217 231 240
1.325470e+01 -1.518513e+00 -6.897058e+00 125 129 129
-3.317319e+00 -3.874561e+00 5.487756e+00 220 231 233
-2.964148e+00 -2.250244e+00 5.248774e+00 203 220 231
-1.774128e+00 -1.145922e+00 2.918376e+00 233 236 220
-1.382780e+00 -2.666582e+00 4.418204e+00 199 209 209
-9.572675e-01 -3.630865e-01 1.462511e+00 254 254 254
-9.184259e+01 -1.577510e+01 3.294857e+01 45 52 51
-3.406615e-01 -5.113487e-01 -1.291454e+01 221 223 222
-4.206476e-01 -5.241924e-01 -1.295438e+01 221 223 222
-4.445504e-01 -5.898881e-01 -1.257178e+01 241 240 243
-4.497192e-01 -1.690369e+00 -1.136915e+00 248 248 246
-3.303943e+00 -3.693982e+00 5.680775e+00 200 212 215
-1.034608e+02 -1.413982e+01 2.686881e+01 63 66 53
-1.111368e+02 -1.452467e+01 2.850091e+01 198 188 141
1.721690e+01 -2.315910e+00 -3.468486e+00 48 41 44
1.721690e+01 -2.315910e+00 -3.468486e+00 48 41 44
-9.478209e-01 -2.430831e+00 2.838202e+00 247 247 246
-1.088850e+00 -2.010224e+00 3.337686e+00 128 131 145
-4.130946e+01 -1.025324e+01 1.746686e+01 121 117 114
-4.130946e+01 -1.025324e+01 1.746686e+01 121 117 114
-4.410263e+01 -1.141077e+01 2.122075e+01 47 54 60
-6.826884e+01 -1.357052e+01 2.653570e+01 72 82 89
-6.815190e+01 -1.209369e+01 2.183933e+01 75 80 83
-9.583193e+01 -1.529234e+01 2.937048e+01 103 111 88
-9.656872e+01 -1.104388e+01 1.893047e+01 217 206 151
1.663241e+01 -5.474336e-01 -5.903634e+00 162 160 171
1.349234e+01 -1.529195e+00 -7.069089e+00 246 247 247
-1.405812e+00 -2.339979e+00 4.065692e+00 250 253 251
-7.139643e-01 -1.738655e+00 2.360604e+00 76 83 98
-1.782869e+01 2.518707e-01 -1.902691e+01 62 78 91
4.596891e+00 6.735068e-02 3.007659e+00 39 46 69
-1.688523e+00 -1.229679e+00 3.156072e+00 47 51 71
-4.242285e+01 -1.047483e+01 1.757415e+01 126 123 121
-8.490584e+01 -1.647689e+01 3.748136e+01 43 48 51
1.099256e+01 -2.808864e+00 -3.080112e+00 249 249 247
4.078792e-01 -4.697956e-02 -1.464653e+01 240 239 235
-1.127362e-01 -2.685857e-01 -1.395967e+01 226 226 221
-5.971685e-01 -2.340531e+00 2.200576e+00 78 84 72
-1.050377e+00 -1.119334e+00 1.345275e+00 184 203 216
-1.718062e+01 6.918925e-01 -2.016174e+01 228 228 218
-4.236738e+01 -1.145377e+01 2.169754e+01 255 255 253
-5.946493e+01 -1.179431e+01 2.077996e+01 121 123 116
