ply
format ascii 1.0
element vertex 922
property float x
property float y
property float z
property uchar diffuse_red
property uchar diffuse_green
property uchar diffuse_blue
end_header
-8.447372e+00 -2.760644e+00 4.206685e+00 159 159 156
-8.447372e+00 -2.760644e+00 4.206685e+00 159 159 156
-3.610606e+00 -1.655823e+00 6.092949e+00 255 255 252
-1.616038e+01 3.865524e-01 1.584626e+00 244 250 251
-1.319002e+01 9.111504e-01 3.960538e+00 179 193 201
2.538084e+01 7.602242e+00 -3.449890e+01 153 166 102
2.398751e+01 7.799585e+00 -3.552528e+01 142 140 90
2.541620e+01 8.399835e+00 -3.590964e+01 211 208 147
2.439072e+01 9.430638e+00 -3.795175e+01 202 199 120
1.870699e+01 1.085005e+01 -4.242990e+01 215 208 126
2.552419e+01 1.018581e+01 -3.852388e+01 198 204 108
-1.425249e+01 4.423882e+00 -5.160279e+00 190 193 154
1.453829e+01 1.395075e+01 -4.869079e+01 199 215 110
-4.120779e+01 2.865259e+01 -1.074587e+02 124 121 75
3.064048e+01 1.410119e+01 -4.239102e+01 199 199 111
4.085638e+01 1.877204e+01 -5.676911e+01 81 88 68
4.073111e+01 1.971497e+01 -5.992882e+01 212 213 192
-2.527780e+01 3.329210e+01 -1.002618e+02 201 199 188
1.089853e+01 2.081452e+01 -5.283804e+01 119 110 104
-2.594479e+01 3.654332e+01 -1.006354e+02 237 235 222
-2.280860e+01 -1.973679e+00 -2.088758e+00 182 193 197
-2.173973e+01 -1.817290e+00 -1.588348e+00 205 214 220
-7.682767e+00 -2.477233e+00 4.637803e+00 186 199 211
-2.101504e+01 7.761503e-01 -3.865930e-01 79 101 133
2.108086e+01 8.465636e+00 -3.795130e+01 210 212 133
1.798649e+01 9.373012e+00 -4.094899e+01 197 197 122
2.696290e+01 8.795597e+00 -3.603111e+01 133 131 62
2.540949e+01 9.444711e+00 -3.759242e+01 115 110 70
2.497262e+01 9.941369e+00 -3.846379e+01 106 111 70
-3.510741e+01 1.937972e+01 -7.728168e+01 86 92 56
2.749606e+01 1.025634e+01 -3.773309e+01 210 206 111
2.551640e+01 1.070049e+01 -3.904322e+01 86 74 43
2.771210e+01 1.052483e+01 -3.773181e+01 112 101 44
2.733557e+01 1.069186e+01 -3.784513e+01 194 198 107
2.733557e+01 1.069186e+01 -3.784513e+01 194 198 107
2.544495e+01 1.102577e+01 -3.932216e+01 176 168 93
1.810110e+01 1.224073e+01 -4.508611e+01 234 223 144
2.919181e+01 1.122297e+01 -3.793949e+01 187 177 99
-3.247263e+01 2.029699e+01 -7.542494e+01 72 73 53
-4.504106e+01 3.282227e+01 -1.160698e+02 182 178 166
-1.678492e+01 4.045984e+00 5.836200e-01 176 203 221
4.126813e+01 1.936930e+01 -5.778413e+01 220 224 202
-8.269956e+00 -5.101960e+00 3.953211e+00 93 95 93
-1.083431e+01 -4.514290e+00 1.214225e+00 84 83 78
-2.248341e+01 -2.902419e+00 -2.462000e+00 19 25 21
-7.876502e+00 -2.767961e+00 4.430628e+00 24 30 45
2.288932e+01 7.793872e+00 -3.602332e+01 168 165 115
2.743881e+01 9.181957e+00 -3.579127e+01 146 150 91
2.264122e+01 9.916036e+00 -3.910647e+01 118 115 73
-3.473524e+01 1.893082e+01 -7.665782e+01 193 190 135
-4.015747e+01 2.038050e+01 -8.223412e+01 246 210 161
2.465193e+01 1.043107e+01 -3.900996e+01 187 180 110
2.803773e+01 1.012268e+01 -3.730278e+01 193 193 95
-4.186037e+01 2.107588e+01 -8.190378e+01 89 87 45
2.685576e+01 1.092011e+01 -3.830893e+01 204 207 124
2.692837e+01 1.095137e+01 -3.842071e+01 204 207 124
2.480477e+01 1.137073e+01 -4.013810e+01 211 216 127
-3.131522e+01 1.965483e+01 -7.344606e+01 138 128 103
2.782750e+01 1.165552e+01 -3.935011e+01 178 177 99
2.906348e+01 1.150498e+01 -3.809586e+01 106 87 41
2.096097e+01 1.309253e+01 -4.432873e+01 232 236 138
2.725354e+01 1.328628e+01 -4.167916e+01 211 194 124
2.607554e+01 1.393923e+01 -4.329037e+01 187 149 75
-1.651427e+01 3.903027e+00 6.938375e-01 60 73 86
-2.191519e+01 2.690047e+01 -7.229091e+01 99 92 84
-2.203615e+01 2.803115e+01 -7.237473e+01 109 101 86
-2.485048e+01 -6.829914e+00 8.189025e+00 168 169 163
-2.214961e+01 -3.949663e+00 -2.183360e+00 118 118 116
-2.380315e+01 -2.885924e+00 -2.719705e+00 144 142 137
-2.198267e+01 -2.754060e+00 -2.145402e+00 53 51 73
-7.024783e+00 -3.468169e+00 4.707070e+00 99 102 116
-2.099398e+01 -1.793170e+00 -1.266285e+00 75 81 81
-3.126572e+00 -1.719940e+00 5.893715e+00 254 254 253
-3.152480e+00 -9.549113e-01 5.984393e+00 107 107 142
-1.627196e+01 2.401011e-01 1.667561e+00 150 158 182
2.387926e+01 7.348452e+00 -3.463136e+01 224 229 231
2.493684e+01 7.271238e+00 -3.408912e+01 218 214 212
2.628000e+01 7.180060e+00 -3.312393e+01 134 124 113
2.591343e+01 7.252713e+00 -3.347399e+01 114 99 100
-1.209953e+01 1.617268e+00 3.005410e+00 62 76 126
2.124459e+01 9.889470e+00 -4.018415e+01 211 206 134
2.519332e+01 9.590679e+00 -3.771327e+01 190 186 102
1.251620e+01 1.132328e+01 -4.562473e+01 230 226 126
2.668090e+01 9.872012e+00 -3.716481e+01 129 129 72
1.710337e+01 1.133760e+01 -4.423050e+01 218 218 111
2.577484e+01 1.026157e+01 -3.837583e+01 154 154 84
1.877369e+01 1.124222e+01 -4.287132e+01 219 214 136
1.331674e+01 1.192141e+01 -4.593559e+01 210 214 130
2.921055e+01 1.026422e+01 -3.671672e+01 148 140 71
1.489965e+01 1.232060e+01 -4.618182e+01 205 187 133
2.586775e+01 1.090377e+01 -3.887620e+01 206 211 120
2.433118e+01 1.169491e+01 -4.062346e+01 174 185 95
1.443833e+01 1.360337e+01 -4.835548e+01 223 215 130
2.753067e+01 1.196054e+01 -3.975952e+01 177 170 101
1.458566e+01 1.407511e+01 -4.847353e+01 211 214 121
-4.141812e+01 2.912103e+01 -1.086016e+02 87 87 37
-4.441142e+01 3.057963e+01 -1.117517e+02 108 121 69
2.569814e+01 1.349792e+01 -4.278667e+01 219 188 97
-2.053627e+01 2.306280e+01 -7.150051e+01 255 249 246
-2.099931e+01 -9.171989e+00 1.768380e+01 83 85 84
-2.108995e+01 -8.802718e+00 1.626760e+01 173 170 158
-1.062033e+01 -3.028253e+00 3.242624e+00 48 53 56
-1.066182e+01 -1.795621e+00 3.664533e+00 219 230 224
-7.680267e+00 1.466776e+00 1.666178e+00 86 89 110
2.215363e+01 8.328882e+00 -3.680092e+01 128 143 69
2.340427e+01 8.939759e+00 -3.752461e+01 104 109 52
2.014165e+01 9.756285e+00 -4.039433e+01 190 185 130
1.995426e+01 9.853743e+00 -4.067318e+01 110 118 65
2.077718e+01 9.797628e+00 -4.007213e+01 112 103 46
2.419954e+01 9.587471e+00 -3.812190e+01 155 143 62
1.686844e+01 1.062369e+01 -4.287574e+01 221 215 135
-4.044892e+01 1.935400e+01 -8.054773e+01 122 104 74
2.630644e+01 9.645891e+00 -3.747879e+01 220 202 139
1.290345e+01 1.136609e+01 -4.503952e+01 176 158 108
1.417238e+01 1.153267e+01 -4.541526e+01 235 223 147
1.342906e+01 1.157772e+01 -4.529138e+01 234 229 149
2.861974e+01 9.793130e+00 -3.620894e+01 140 141 64
-4.165705e+01 2.037961e+01 -8.156243e+01 233 242 175
2.730913e+01 1.010837e+01 -3.714446e+01 209 201 111
2.658620e+01 1.043467e+01 -3.807143e+01 217 216 140
-4.126577e+01 2.089023e+01 -8.192804e+01 61 66 25
2.404505e+01 1.135333e+01 -4.075938e+01 92 79 50
2.369612e+01 1.144233e+01 -4.114788e+01 221 216 148
-3.319336e+01 1.985511e+01 -7.529020e+01 189 187 140
-3.319336e+01 1.985511e+01 -7.529020e+01 189 187 140
-3.343826e+01 2.019073e+01 -7.581713e+01 72 67 41
1.493672e+01 1.322772e+01 -4.729943e+01 111 112 70
1.689504e+01 1.309846e+01 -4.629824e+01 227 233 146
1.151974e+01 1.398221e+01 -4.990736e+01 243 242 130
-3.175589e+01 2.052560e+01 -7.477413e+01 55 55 29
2.871844e+01 1.169106e+01 -3.862815e+01 209 204 139
-3.060763e+01 2.050994e+01 -7.439191e+01 250 239 167
-3.060763e+01 2.050994e+01 -7.439191e+01 250 239 167
-4.472317e+01 2.913379e+01 -1.098413e+02 194 173 112
2.662431e+01 1.260071e+01 -4.084979e+01 196 199 120
2.650807e+01 1.295153e+01 -4.142396e+01 148 141 66
2.642540e+01 1.291064e+01 -4.128997e+01 148 141 66
2.927079e+01 1.281796e+01 -4.003534e+01 134 122 52
2.147185e+01 1.432622e+01 -4.630197e+01 222 214 134
2.147185e+01 1.432622e+01 -4.630197e+01 222 214 134
-4.521978e+01 3.096433e+01 -1.120062e+02 214 210 184
-3.984560e+01 3.005605e+01 -1.081751e+02 234 229 198
2.880261e+01 1.341536e+01 -4.139407e+01 154 146 81
-1.638789e+01 3.853327e+00 7.059704e-01 113 130 140
-2.145463e+01 -9.111135e+00 1.748650e+01 71 80 41
-2.135564e+01 -8.803131e+00 1.627571e+01 94 95 90
-2.799819e+01 -4.543080e+00 -9.307538e-01 72 75 73
-8.117909e+00 -4.313692e+00 3.956158e+00 139 137 137
-8.508843e+00 -3.211072e+00 4.009982e+00 231 225 212
-8.112740e+00 -3.142484e+00 4.238747e+00 108 122 133
-6.668280e+00 -3.185452e+00 4.925013e+00 183 196 204
-6.700561e+00 -3.073686e+00 4.748949e+00 67 76 86
-1.666308e+01 -1.120779e+00 1.173460e+00 33 39 68
-4.168555e+00 -1.640433e+00 6.120421e+00 255 245 114
2.182732e+01 7.741797e+00 -3.605702e+01 161 154 130
2.502436e+01 7.286912e+00 -3.358288e+01 154 148 115
-4.132078e+01 1.787402e+01 -7.913925e+01 197 187 132
2.431976e+01 9.045938e+00 -3.723891e+01 152 160 75
1.692433e+01 1.009286e+01 -4.231213e+01 157 150 79
1.823230e+01 1.056376e+01 -4.241832e+01 101 91 52
-3.987477e+01 1.975915e+01 -8.170503e+01 242 233 177
1.687359e+01 1.100837e+01 -4.354167e+01 103 99 41
1.688472e+01 1.101548e+01 -4.356326e+01 103 99 41
-3.998246e+01 2.017194e+01 -8.194272e+01 254 227 175
-3.372957e+01 1.839934e+01 -7.393250e+01 219 214 165
-3.372957e+01 1.839934e+01 -7.393250e+01 219 214 165
2.174524e+01 1.079427e+01 -4.101825e+01 160 165 78
-3.451949e+01 1.944970e+01 -7.657767e+01 226 230 172
2.775131e+01 1.040225e+01 -3.765035e+01 96 87 30
-3.221391e+01 1.886179e+01 -7.354980e+01 73 76 37
-3.221391e+01 1.886179e+01 -7.354980e+01 73 76 37
2.503428e+01 1.086605e+01 -3.956786e+01 111 110 45
1.762777e+01 1.202397e+01 -4.474330e+01 234 227 111
1.289031e+01 1.263427e+01 -4.737025e+01 92 83 41
-3.227097e+01 1.931588e+01 -7.422075e+01 71 69 31
-3.382083e+01 2.003928e+01 -7.616520e+01 66 59 27
1.613176e+01 1.287267e+01 -4.650933e+01 152 138 83
1.613176e+01 1.287267e+01 -4.650933e+01 152 138 83
-3.254601e+01 2.011968e+01 -7.530190e+01 55 63 26
1.668406e+01 1.306584e+01 -4.636582e+01 117 117 49
1.668406e+01 1.306584e+01 -4.636582e+01 117 117 49
-3.057089e+01 1.980223e+01 -7.325303e+01 233 243 146
2.047267e+01 1.270711e+01 -4.431976e+01 141 143 55
-3.102768e+01 2.028337e+01 -7.411171e+01 244 251 184
-3.111212e+01 2.079968e+01 -7.466655e+01 224 232 179
-3.920056e+01 2.866413e+01 -1.068442e+02 216 235 160
-4.529424e+01 2.986299e+01 -1.112143e+02 80 100 26
-4.170923e+01 2.926472e+01 -1.085666e+02 212 241 125
-2.876984e+01 2.147632e+01 -7.595360e+01 128 123 71
-4.223469e+01 2.996702e+01 -1.102522e+02 77 89 21
2.393340e+01 1.370064e+01 -4.433814e+01 223 212 149
-3.815932e+01 2.924555e+01 -1.074570e+02 251 245 231
2.026260e+01 1.430747e+01 -4.666941e+01 141 145 57
2.997960e+01 2.112861e+01 -6.717245e+01 244 248 220
-2.079243e+01 2.644241e+01 -7.136687e+01 234 227 215
-2.079243e+01 2.644241e+01 -7.136687e+01 234 227 215
-2.215282e+01 2.765572e+01 -7.218553e+01 93 83 82
-1.011246e+01 -3.864358e+00 3.769590e+00 25 25 28
-1.023114e+01 -2.589970e+00 3.667834e+00 132 147 157
-2.148015e+01 2.368229e+00 -1.514736e+00 93 113 124
-2.148015e+01 2.368229e+00 -1.514736e+00 93 113 124
1.455758e+01 1.355141e+01 -4.683433e+01 212 212 127
-5.858831e+00 -1.901652e+00 5.789674e+00 255 255 253
-7.935087e+00 -4.063457e+00 4.111127e+00 10 11 11
-6.920584e+00 -4.006260e+00 4.515555e+00 13 13 12
-7.585319e+00 -3.458383e+00 4.577663e+00 161 173 189
-8.255698e+00 -3.024342e+00 4.195681e+00 10 10 10
1.761595e+01 1.077841e+01 -4.296643e+01 210 207 108
-1.340877e+01 -4.163172e+00 -2.146578e-01 105 103 85
-8.544060e+00 -3.219403e+00 4.065865e+00 212 209 200
-2.175299e+01 -2.083466e+00 -1.814727e+00 21 21 20
-1.807265e+01 -9.483930e+00 1.922361e+01 79 75 79
-8.004757e+00 -3.754270e+00 4.205540e+00 159 168 175
-2.308208e+01 -1.106432e+00 -1.969455e+00 183 188 191
-2.168805e+01 2.134369e+00 -1.099052e+00 83 101 116
2.208289e+01 8.363941e+00 -3.702562e+01 156 155 101
-1.874030e+01 -8.763305e+00 1.639834e+01 108 110 95
-1.874030e+01 -8.763305e+00 1.639834e+01 108 110 95
-8.218117e+00 -4.147713e+00 3.956359e+00 226 226 218
-8.005938e+00 -3.519546e+00 4.319915e+00 167 176 181
-6.490269e+00 -3.425588e+00 4.924064e+00 41 48 54
-7.341507e+00 -3.289682e+00 4.583693e+00 166 173 186
-2.186664e+01 2.054989e+00 -1.094663e+00 183 211 234
1.471795e+01 1.008055e+01 -4.312162e+01 239 234 157
2.203968e+01 9.412991e+00 -3.900151e+01 197 196 106
1.241335e+01 1.111214e+01 -4.517643e+01 228 228 118
-2.175080e+01 -1.814232e+00 -1.661217e+00 205 214 220
-7.078371e+00 -2.667704e+00 4.866625e+00 193 208 217
2.063036e+01 7.007746e+00 -3.530374e+01 212 216 214
1.984594e+01 7.121607e+00 -3.584191e+01 211 213 210
1.851322e+01 8.079781e+00 -3.819645e+01 230 231 228
1.333659e+01 1.012041e+01 -4.376963e+01 221 215 133
1.148146e+01 1.109157e+01 -4.539507e+01 224 215 119
1.148393e+01 1.110001e+01 -4.541612e+01 224 215 119
2.018331e+01 1.080290e+01 -4.164242e+01 133 141 71
1.463481e+01 1.288419e+01 -4.723588e+01 227 211 148
2.747892e+01 1.118906e+01 -3.850125e+01 123 130 57
1.531068e+01 1.324745e+01 -4.733391e+01 213 224 126
-2.296416e+01 -3.800652e+00 -2.772226e+00 20 25 28
-7.439312e+00 -3.952761e+00 4.447533e+00 151 159 166
1.958934e+01 7.171966e+00 -3.620299e+01 207 215 209
-1.210103e+01 1.648338e+00 2.975516e+00 62 76 122
1.730501e+01 9.581776e+00 -4.166797e+01 220 212 151
1.646384e+01 9.609748e+00 -4.163037e+01 225 223 146
1.415613e+01 1.040915e+01 -4.394323e+01 230 220 159
1.873159e+01 1.039623e+01 -4.198039e+01 117 118 62
7.599275e+00 1.277632e+01 -4.988694e+01 218 216 130
7.599275e+00 1.277632e+01 -4.988694e+01 218 216 130
2.089147e+01 1.131603e+01 -4.234735e+01 211 207 135
2.074129e+01 1.153393e+01 -4.261554e+01 166 169 82
2.074129e+01 1.153393e+01 -4.261554e+01 166 169 82
1.821160e+01 1.213770e+01 -4.449290e+01 158 146 86
-7.017312e+00 -3.460893e+00 4.682942e+00 99 102 116
-3.379390e+01 -1.527543e+00 -1.337831e+01 57 67 77
-7.989135e+00 -3.184118e+00 4.379078e+00 172 180 184
-2.304439e+01 -2.193600e+00 -2.248587e+00 211 212 217
-2.468517e+00 -2.714748e+00 5.838160e+00 156 97 87
1.129091e+01 3.597686e-01 -1.339634e+01 53 50 57
-1.626984e+01 2.372352e-01 1.675216e+00 150 158 182
-2.496604e+01 2.351482e+00 -2.609050e+00 55 81 110
1.812139e+01 8.179112e+00 -3.884915e+01 233 235 235
1.681441e+01 8.712714e+00 -3.982689e+01 130 115 82
1.588663e+01 9.064370e+00 -4.088693e+01 252 226 180
1.296631e+01 1.027671e+01 -4.398375e+01 222 216 120
1.615535e+01 1.023204e+01 -4.245626e+01 234 221 152
8.764236e+00 1.154376e+01 -4.714072e+01 232 237 145
2.038777e+01 1.035140e+01 -4.125727e+01 220 221 141
1.582509e+01 1.203584e+01 -4.531635e+01 147 155 79
1.207692e+01 1.265450e+01 -4.771944e+01 227 229 110
1.207692e+01 1.265450e+01 -4.771944e+01 227 229 110
2.901968e+01 1.049287e+01 -3.715766e+01 204 187 109
-1.582673e+01 1.759172e+01 -6.688866e+01 117 128 121
9.692130e+00 1.360259e+01 -4.978961e+01 144 136 73
1.191252e+01 1.351434e+01 -4.889158e+01 189 190 106
2.263906e+01 1.214552e+01 -4.241091e+01 122 126 69
2.971544e+01 2.132751e+01 -6.742618e+01 249 250 244
2.971544e+01 2.132751e+01 -6.742618e+01 249 250 244
-6.090338e+00 -4.363827e+00 4.894894e+00 79 80 75
-7.163325e+00 -3.035814e+00 4.735931e+00 161 158 165
-2.253115e+01 -1.410326e+00 -1.924746e+00 251 253 251
-7.650125e+00 1.377082e+00 1.713522e+00 203 211 214
1.923972e+01 7.859675e+00 -3.712174e+01 227 229 231
1.721023e+01 8.809052e+00 -3.994093e+01 135 125 87
1.223667e+01 1.028115e+01 -4.412103e+01 218 226 120
1.226385e+01 1.029867e+01 -4.420162e+01 218 226 120
2.564206e+01 9.078415e+00 -3.695304e+01 211 195 129
2.083182e+01 9.819819e+00 -4.019033e+01 112 103 46
2.083182e+01 9.819819e+00 -4.019033e+01 112 103 46
1.154221e+01 1.149315e+01 -4.614378e+01 152 141 84
1.154221e+01 1.149315e+01 -4.614378e+01 152 141 84
1.808150e+01 1.093675e+01 -4.304302e+01 224 218 120
1.201197e+01 1.167189e+01 -4.608356e+01 151 136 38
2.605550e+01 1.005013e+01 -3.790627e+01 201 194 122
1.217485e+01 1.194463e+01 -4.649345e+01 223 231 125
7.842723e+00 1.284041e+01 -4.940121e+01 142 162 64
1.270276e+01 1.245065e+01 -4.716121e+01 183 161 103
7.561854e+00 1.324373e+01 -5.017651e+01 237 220 152
1.147032e+01 1.286382e+01 -4.818880e+01 222 228 114
7.054336e+00 1.349092e+01 -5.094911e+01 251 251 142
1.909325e+01 1.208898e+01 -4.410476e+01 208 186 118
9.637767e+00 1.326147e+01 -4.923975e+01 220 221 115
9.637767e+00 1.326147e+01 -4.923975e+01 220 221 115
1.264984e+01 1.325649e+01 -4.786811e+01 207 216 107
-8.167916e+00 -4.083631e+00 3.908259e+00 98 92 111
-2.230790e+01 -3.200601e+00 -2.248719e+00 213 215 219
-8.507385e+00 -3.791543e+00 3.941150e+00 149 149 140
-2.200166e+01 -2.965398e+00 -2.062163e+00 253 254 255
-8.374710e+00 -3.134614e+00 3.982137e+00 156 151 144
-8.076958e+00 -2.626029e+00 4.263790e+00 152 139 131
-2.242348e+01 -1.530296e+00 -1.827415e+00 157 168 177
-2.315939e+01 -1.249971e+00 -2.345493e+00 103 96 82
-2.056497e+01 1.760061e+00 -4.764882e-01 185 200 214
1.817943e+01 7.139481e+00 -3.713899e+01 144 126 113
1.933487e+01 8.060172e+00 -3.761917e+01 167 165 129
1.796545e+01 8.549375e+00 -3.940320e+01 112 111 74
9.666730e+00 1.079585e+01 -4.623755e+01 156 150 86
1.958405e+01 9.823129e+00 -4.103804e+01 218 219 148
9.447625e+00 1.097437e+01 -4.598980e+01 114 112 49
7.841466e+00 1.135120e+01 -4.745615e+01 96 89 48
1.581591e+01 1.077720e+01 -4.323936e+01 142 144 73
7.972715e+00 1.206336e+01 -4.839980e+01 132 137 60
1.583345e+01 1.183032e+01 -4.528172e+01 239 234 159
1.583345e+01 1.183032e+01 -4.528172e+01 239 234 159
1.152009e+01 1.270031e+01 -4.769778e+01 219 224 128
-1.543050e+01 1.696896e+01 -6.602409e+01 198 211 180
2.804083e+01 1.050191e+01 -3.736496e+01 159 154 74
1.735512e+01 1.214859e+01 -4.488028e+01 233 227 122
8.297212e+00 1.341204e+01 -5.004681e+01 112 110 40
8.516467e+00 1.359108e+01 -5.033399e+01 224 216 137
2.385818e+01 1.193970e+01 -4.187970e+01 149 149 86
1.582835e+01 1.317931e+01 -4.695511e+01 136 132 60
1.659246e+01 1.346228e+01 -4.739113e+01 241 239 154
-2.109835e+01 2.488894e+01 -7.145566e+01 245 238 222
-9.782673e+00 -3.848223e+00 2.791222e+00 24 28 33
-1.549207e+01 2.992935e+00 -1.588038e+00 50 68 87
-2.067017e+01 -4.961093e+00 4.774200e-01 113 116 114
-2.803301e+01 3.978759e-01 -4.689593e+00 150 190 224
-7.926409e+00 -4.075622e+00 4.078216e+00 13 15 14
-6.941168e+00 -4.008835e+00 4.541493e+00 13 13 12
-1.093199e+01 -2.833863e+00 3.243443e+00 154 167 177
-8.278259e+00 -3.006426e+00 4.221160e+00 11 13 10
-2.558801e+01 -3.428804e+00 -4.834417e+00 116 117 109
-2.290349e+01 -2.754542e+00 -2.459315e+00 19 22 21
-7.244773e+00 -4.004116e+00 4.428610e+00 147 156 167
-2.293884e+01 -2.407703e+00 -2.369398e+00 170 181 188
-7.660739e+00 -3.948104e+00 4.316515e+00 156 166 175
-2.163420e+01 -2.474484e+00 -1.748045e+00 176 185 190
-6.927513e+00 -3.694524e+00 4.603816e+00 199 204 207
-1.642543e+01 -2.328461e+00 6.903066e-01 132 148 163
3.602656e+01 9.898682e+00 -3.368107e+01 193 197 86
3.052856e+01 1.208696e+01 -3.847100e+01 126 131 63
3.052856e+01 1.208696e+01 -3.847100e+01 126 131 63
-2.229624e+01 -2.275226e+00 -1.955547e+00 152 157 173
-2.236924e+01 -1.871789e+00 -1.878666e+00 142 147 152
-2.275222e+01 -1.791583e+00 -2.044996e+00 148 153 158
-2.218554e+01 -1.722997e+00 -1.757226e+00 254 254 255
-7.490197e+00 -3.124004e+00 4.631593e+00 117 125 124
-2.348089e+01 -1.122601e+00 -2.196349e+00 85 85 85
-6.923161e+00 -2.457039e+00 5.084991e+00 30 34 40
3.474680e+01 1.040525e+01 -3.453443e+01 204 203 98
3.349999e+01 1.083293e+01 -3.630240e+01 143 155 67
-6.649746e+00 -3.366851e+00 4.822189e+00 17 17 16
-6.821871e+00 -2.726585e+00 5.016633e+00 60 68 74
3.096830e+01 7.082658e+00 -3.106421e+01 89 94 65
3.083822e+01 8.310900e+00 -3.317358e+01 202 199 135
3.146037e+01 8.653448e+00 -3.330864e+01 104 113 63
3.146037e+01 8.653448e+00 -3.330864e+01 104 113 63
2.173535e+01 1.109990e+01 -4.134541e+01 148 163 77
3.083416e+01 9.951090e+00 -3.567523e+01 200 214 100
2.477674e+01 1.099061e+01 -3.973351e+01 174 180 76
3.655803e+01 9.636334e+00 -3.289266e+01 203 207 97
2.999231e+01 1.126689e+01 -3.776185e+01 203 184 117
3.268547e+01 1.098083e+01 -3.634536e+01 201 203 103
-2.248258e+01 -2.562392e+00 -2.131673e+00 174 182 188
-2.248232e+01 -2.561561e+00 -2.133821e+00 174 182 188
-1.601580e+01 2.608115e-01 1.575082e+00 129 142 159
3.153254e+01 6.357718e+00 -2.963600e+01 211 216 219
2.564410e+01 9.529859e+00 -3.730876e+01 212 204 123
2.685963e+01 9.530589e+00 -3.712230e+01 192 191 119
3.025962e+01 9.404121e+00 -3.498367e+01 104 105 44
2.500379e+01 1.033020e+01 -3.893197e+01 239 224 180
2.611596e+01 1.148000e+01 -3.953312e+01 199 192 104
-7.789830e+00 -2.429791e+00 4.589525e+00 27 30 29
-1.674981e+01 -1.171362e+00 1.135298e+00 204 216 224
-2.770785e+01 5.560576e-01 -4.135037e+00 110 130 155
2.638458e+01 7.515926e+00 -3.350521e+01 184 193 108
3.227620e+01 6.765543e+00 -3.018668e+01 89 82 53
3.051567e+01 7.358212e+00 -3.159973e+01 118 120 81
2.852349e+01 9.269528e+00 -3.569584e+01 123 128 66
3.009821e+01 9.563089e+00 -3.524697e+01 117 127 75
3.006707e+01 9.554533e+00 -3.521178e+01 117 127 75
2.563481e+01 1.073799e+01 -3.921721e+01 79 64 37
2.699845e+01 1.063521e+01 -3.822643e+01 101 107 62
3.462585e+01 9.917282e+00 -3.391559e+01 120 120 53
3.546137e+01 9.955449e+00 -3.362993e+01 210 216 93
3.605417e+01 9.979607e+00 -3.351178e+01 215 214 96
3.647655e+01 1.009737e+01 -3.331898e+01 120 120 65
2.643631e+01 1.219470e+01 -4.096583e+01 126 145 57
-1.675665e+01 5.578812e+00 -7.854569e+00 182 207 163
3.098980e+01 1.169361e+01 -3.760627e+01 139 134 79
2.261310e+01 1.346770e+01 -4.457812e+01 211 212 111
-4.237142e+00 -1.984912e+00 6.053648e+00 200 220 247
-4.238427e+00 -1.986566e+00 6.056648e+00 200 220 247
2.871028e+01 8.792736e+00 -3.506190e+01 119 112 73
3.148040e+01 8.457545e+00 -3.286552e+01 192 204 132
2.849867e+01 8.988959e+00 -3.519703e+01 110 108 56
2.995224e+01 8.974885e+00 -3.444202e+01 198 201 110
2.162568e+01 1.058157e+01 -4.065392e+01 188 194 104
1.398337e+01 1.212451e+01 -4.626528e+01 221 210 130
3.192881e+01 9.043163e+00 -3.356325e+01 203 215 135
3.457099e+01 8.985907e+00 -3.265818e+01 131 120 78
2.914576e+01 1.024923e+01 -3.663863e+01 147 140 82
2.911500e+01 1.024280e+01 -3.659879e+01 147 140 82
2.596613e+01 1.092102e+01 -3.902680e+01 199 202 110
3.251724e+01 1.011151e+01 -3.492430e+01 206 211 117
3.648258e+01 9.597403e+00 -3.265550e+01 204 203 96
2.942296e+01 1.080020e+01 -3.738541e+01 147 131 55
2.942312e+01 1.079665e+01 -3.738489e+01 147 131 55
1.271429e+01 1.491676e+01 -5.091693e+01 229 218 124
-2.257955e+01 -3.927221e+00 -2.352251e+00 119 119 114
-7.555105e+00 -3.789738e+00 4.450897e+00 19 27 53
-1.577471e+01 -2.543482e+00 1.196899e+00 49 58 66
-8.449885e+00 -3.181473e+00 4.017223e+00 84 79 91
-2.329976e+01 -1.331104e+00 -2.251490e+00 255 254 253
-1.666305e+01 -1.123644e+00 1.171714e+00 27 39 54
-1.545379e+01 2.552334e-01 2.011757e+00 223 241 243
3.005491e+01 6.514360e+00 -3.029353e+01 210 215 217
3.120501e+01 6.567709e+00 -3.063590e+01 209 214 215
3.110680e+01 6.655997e+00 -3.029206e+01 145 132 108
2.673971e+01 8.119938e+00 -3.458190e+01 198 210 127
2.978917e+01 8.575567e+00 -3.444122e+01 128 123 60
-2.524169e+01 1.848057e+01 -7.212673e+01 233 216 167
2.902534e+01 8.904359e+00 -3.500727e+01 225 207 138
3.297883e+01 8.380030e+00 -3.246806e+01 134 131 78
2.797156e+01 9.469864e+00 -3.609083e+01 95 96 48
1.856355e+01 1.135800e+01 -4.346374e+01 215 213 100
3.540271e+01 9.520945e+00 -3.326915e+01 141 145 49
3.637360e+01 9.698203e+00 -3.292293e+01 205 207 95
3.436158e+01 1.035840e+01 -3.485017e+01 126 122 51
3.436158e+01 1.035840e+01 -3.485017e+01 126 122 51
3.515292e+01 1.028349e+01 -3.420330e+01 132 121 73
3.579399e+01 1.032309e+01 -3.404136e+01 110 109 48
2.756485e+01 1.170136e+01 -3.937088e+01 112 117 44
3.527913e+01 1.045982e+01 -3.424489e+01 179 176 106
2.477836e+01 1.247001e+01 -4.149681e+01 211 205 127
2.477372e+01 1.246925e+01 -4.148982e+01 211 205 127
2.744731e+01 1.213562e+01 -3.995966e+01 131 120 62
3.202288e+01 1.150370e+01 -3.739427e+01 134 120 74
1.964755e+01 1.407975e+01 -4.669292e+01 233 222 151
-2.205891e+01 2.716467e+01 -7.163006e+01 76 72 61
-2.316931e+01 -2.952025e+00 -2.577307e+00 189 190 199
-8.271193e+00 -4.168604e+00 3.924138e+00 153 147 145
-8.099425e+00 -3.623733e+00 4.069839e+00 92 95 94
-2.198442e+01 -2.022692e+00 -1.785586e+00 142 142 133
-2.234563e+01 -1.960977e+00 -1.931439e+00 50 55 82
-2.337314e+01 6.415766e-02 -1.694044e+00 160 179 177
-1.617746e+01 2.583336e-01 1.638517e+00 235 245 253
-1.611820e+01 2.892925e-01 1.647738e+00 69 78 95
-1.166733e+01 8.024776e-01 3.579753e+00 169 176 176
3.019728e+01 5.826885e+00 -2.993725e+01 183 190 182
-1.203309e+01 1.709314e+00 2.966388e+00 232 244 252
3.004812e+01 7.184157e+00 -3.152233e+01 240 220 171
3.004812e+01 7.184157e+00 -3.152233e+01 240 220 171
2.111145e+01 9.654376e+00 -3.986868e+01 179 189 112
-2.548317e+01 1.843746e+01 -7.238367e+01 236 224 174
2.497176e+01 1.043521e+01 -3.918094e+01 217 204 154
2.469444e+01 1.064482e+01 -3.933403e+01 203 218 121
2.860278e+01 1.000523e+01 -3.657868e+01 215 214 117
2.860278e+01 1.000523e+01 -3.657868e+01 215 214 117
2.859169e+01 1.009612e+01 -3.684332e+01 202 198 105
1.265033e+01 1.282440e+01 -4.765427e+01 234 217 137
2.563288e+01 1.087292e+01 -3.924127e+01 92 88 24
2.563288e+01 1.087292e+01 -3.924127e+01 92 88 24
-6.692460e+00 -3.218467e+00 4.924552e+00 170 184 191
2.871663e+01 2.132809e+01 -6.799309e+01 246 248 235
-2.187498e+01 1.628644e+01 -6.820545e+01 218 227 186
-1.620502e+01 -2.069133e+00 -6.067811e+00 159 169 168
-7.279949e+00 -3.163675e+00 5.141801e+00 235 239 244
-8.211342e+00 -3.310493e+00 4.041096e+00 157 165 171
-1.002005e+01 1.273638e+00 2.631701e+00 162 169 165
2.241495e+01 1.371347e+01 -4.492323e+01 188 186 116
1.913494e+01 1.543541e+01 -4.936438e+01 237 233 136
1.151925e+01 1.411412e+01 -5.031864e+01 239 238 118
9.246657e+00 1.627863e+01 -5.474730e+01 228 228 137
5.144069e+00 1.461989e+01 -5.334668e+01 230 237 130
9.599037e+00 1.408248e+01 -5.084019e+01 230 225 118
2.082342e+01 1.370601e+01 -4.566800e+01 171 174 82
2.082342e+01 1.370601e+01 -4.566800e+01 171 174 82
1.727786e+01 1.427472e+01 -4.794767e+01 232 228 148
1.010106e+01 1.542330e+01 -5.272011e+01 162 157 92
-3.054536e+00 -9.410729e-01 5.798932e+00 107 107 142
2.027643e+01 1.377623e+01 -4.604429e+01 144 139 78
1.204674e+01 1.510917e+01 -5.166424e+01 213 203 121
2.557858e+01 1.324268e+01 -4.264012e+01 174 154 85
1.511265e+01 1.479810e+01 -4.950192e+01 229 222 116
1.805238e+01 1.435019e+01 -4.743562e+01 205 208 107
1.133547e+01 1.767583e+01 -5.305865e+01 246 225 174
-5.850363e+00 -3.567845e+00 5.139561e+00 84 83 82
-9.673868e+00 1.222668e+00 2.420840e+00 43 47 50
6.186197e+00 1.398559e+01 -5.203639e+01 212 213 106
9.888032e+00 1.448021e+01 -5.117100e+01 141 126 72
2.413946e+01 1.302501e+01 -4.339076e+01 183 190 96
2.395000e+01 1.309297e+01 -4.347710e+01 140 144 68
9.866249e+00 1.492352e+01 -5.160653e+01 244 241 141
6.376029e+00 1.582161e+01 -5.498808e+01 243 233 161
2.314338e+01 1.355412e+01 -4.461232e+01 141 156 60
1.049476e+01 1.588317e+01 -5.361195e+01 222 225 148
9.975280e+00 1.709970e+01 -5.663811e+01 108 117 56
9.975280e+00 1.709970e+01 -5.663811e+01 108 117 56
1.123283e+01 1.647401e+01 -5.348413e+01 122 117 79
-6.964529e+00 -4.403545e+00 4.455778e+00 134 146 158
9.102252e+00 1.381776e+01 -5.052641e+01 223 223 121
9.301317e+00 1.395173e+01 -5.059113e+01 188 166 87
9.302295e+00 1.395191e+01 -5.059763e+01 188 166 87
9.224399e+00 1.505754e+01 -5.231035e+01 195 179 97
2.089951e+01 1.356555e+01 -4.527188e+01 232 219 144
1.227639e+01 1.534531e+01 -5.192158e+01 144 123 69
2.398222e+01 1.372230e+01 -4.444230e+01 223 212 149
2.480769e+01 1.390413e+01 -4.448896e+01 130 122 79
2.480769e+01 1.390413e+01 -4.448896e+01 130 122 79
2.353235e+01 1.440758e+01 -4.585946e+01 232 220 157
1.115055e+01 1.618975e+01 -5.351924e+01 243 228 178
-8.043913e+00 -2.914684e+00 4.478171e+00 180 190 202
3.681769e+01 1.104792e+01 -3.446517e+01 123 118 77
3.818272e+01 1.229195e+01 -3.586594e+01 197 191 95
2.268777e+01 1.337073e+01 -4.472738e+01 201 203 89
2.268777e+01 1.337073e+01 -4.472738e+01 201 203 89
3.701769e+01 1.070774e+01 -3.403660e+01 176 177 89
3.701769e+01 1.070774e+01 -3.403660e+01 176 177 89
3.357637e+01 1.186064e+01 -3.706146e+01 180 179 83
3.610812e+01 1.156671e+01 -3.525303e+01 137 139 87
3.330352e+01 1.211525e+01 -3.754480e+01 199 191 108
-2.689870e+01 3.390087e+01 -1.009979e+02 188 189 176
1.113047e+01 2.173758e+01 -5.223003e+01 245 237 216
1.102827e+01 2.264119e+01 -5.182142e+01 254 249 228
1.070284e+01 2.293229e+01 -5.220191e+01 94 95 84
1.102194e+01 2.367269e+01 -5.160580e+01 254 251 228
3.654366e+01 1.027379e+01 -3.374720e+01 128 123 67
3.771673e+01 1.047379e+01 -3.366745e+01 174 168 84
3.411452e+01 1.194739e+01 -3.706154e+01 142 136 89
3.642839e+01 1.230597e+01 -3.671812e+01 182 177 86
3.666503e+01 1.109370e+01 -3.462865e+01 115 103 54
3.528751e+01 1.217806e+01 -3.689191e+01 208 209 132
3.469421e+01 1.275008e+01 -3.815201e+01 214 210 123
3.705245e+01 1.254263e+01 -3.671830e+01 130 128 71
2.683591e+01 2.177789e+01 -6.997664e+01 249 247 238
4.269384e+00 1.381650e+01 -5.283704e+01 125 150 123
3.633499e+00 1.451866e+01 -5.396123e+01 152 172 147
3.453587e+01 1.117118e+01 -3.614857e+01 184 183 111
3.676693e+01 1.111207e+01 -3.473866e+01 114 102 53
3.715941e+01 1.142593e+01 -3.499994e+01 171 159 98
3.797776e+01 1.131355e+01 -3.427147e+01 129 118 62
3.265873e+01 1.231914e+01 -3.811693e+01 158 137 72
3.265873e+01 1.231914e+01 -3.811693e+01 158 137 72
2.560722e+01 1.391534e+01 -4.373868e+01 138 138 78
3.775657e+01 1.171085e+01 -3.486029e+01 173 176 103
3.465795e+01 1.231044e+01 -3.717812e+01 192 190 126
3.404532e+01 1.248337e+01 -3.786567e+01 104 96 52
3.404532e+01 1.248337e+01 -3.786567e+01 104 96 52
3.712233e+01 1.255824e+01 -3.678852e+01 127 125 66
1.135850e+01 1.848444e+01 -5.303623e+01 242 229 198
2.738730e+00 1.597211e+01 -5.693611e+01 183 204 165
1.114617e+01 1.454354e+01 -5.114004e+01 222 222 126
3.615146e+01 1.042290e+01 -3.394240e+01 210 209 108
3.433548e+01 1.157522e+01 -3.704833e+01 212 201 140
1.516705e+01 1.484565e+01 -4.969199e+01 231 221 117
3.327187e+01 1.188561e+01 -3.715666e+01 189 191 91
2.570741e+01 1.321908e+01 -4.215290e+01 92 83 41
2.582287e+01 1.325452e+01 -4.232402e+01 92 83 41
3.749811e+01 1.141044e+01 -3.448556e+01 124 119 74
1.892298e+01 1.502559e+01 -4.843470e+01 238 233 150
3.162162e+01 1.324887e+01 -4.000864e+01 155 143 64
1.455632e+01 1.165166e+01 -4.525839e+01 146 142 72
1.245742e+01 1.424563e+01 -4.970860e+01 110 119 46
1.384886e+01 1.453836e+01 -4.990012e+01 161 160 70
-5.026486e+00 -3.318510e+00 5.435298e+00 156 171 178
-5.037707e+00 -3.318176e+00 5.476253e+00 156 171 178
-4.492645e+00 -1.056653e+00 6.072929e+00 253 253 253
-6.911525e+00 -4.004661e+00 4.480062e+00 13 13 13
-5.880688e+00 -3.550327e+00 5.138652e+00 72 77 73
-7.670325e+00 -4.442653e+00 4.141279e+00 228 232 227
-6.959012e+00 -3.645302e+00 4.627807e+00 230 232 235
-3.783904e+00 -1.110666e+00 5.917673e+00 162 161 169
-3.783904e+00 -1.110666e+00 5.917673e+00 162 161 169
-7.251228e+00 -3.471684e+00 4.638893e+00 93 93 90
-2.472790e+00 -2.710220e+00 5.863868e+00 164 94 70
-7.574396e+00 -4.403509e+00 4.027461e+00 86 79 92
-6.977659e+00 -4.297863e+00 4.415245e+00 54 59 91
-6.604580e+00 -3.771052e+00 4.680288e+00 31 40 66
-6.991633e+00 -3.043538e+00 4.664250e+00 21 28 79
-3.100294e+00 -1.828081e+00 6.175530e+00 184 189 205
-1.390420e+00 -1.338920e+00 4.269735e+00 65 67 86
-8.252138e+00 1.942354e+00 2.943778e-01 86 86 93
-7.003066e+00 -4.151416e+00 4.347404e+00 13 18 47
-3.167625e+00 -1.333038e+00 6.209667e+00 213 213 223
-7.704374e+00 1.425094e+00 1.842362e+00 85 90 110
-7.656934e+00 -4.434285e+00 4.026479e+00 235 238 233
-7.036552e+00 -4.353681e+00 4.393405e+00 243 248 249
-6.967760e+00 -4.225700e+00 4.322493e+00 232 233 233
-7.773616e+00 -3.244874e+00 4.470848e+00 3 2 16
-2.523546e+00 -3.136453e+00 5.632114e+00 180 190 189
-5.581790e+00 -2.151971e+00 5.812035e+00 111 121 152
-3.202089e+00 -9.418062e-01 5.907803e+00 61 70 112
1.036040e+01 2.455419e+01 -7.828513e+01 249 247 235
9.264498e+00 2.510777e+01 -7.989284e+01 166 167 161
9.264498e+00 2.510777e+01 -7.989284e+01 166 167 161
1.926140e+00 2.837312e+01 -8.347257e+01 198 197 185
-6.961397e+00 -3.647160e+00 4.664641e+00 209 215 219
-4.784528e+01 3.393495e+01 -1.141165e+02 255 254 255
-5.089362e+01 3.330283e+01 -1.081696e+02 188 185 158
7.494561e+00 2.583261e+01 -8.093911e+01 173 174 168
-4.797145e+01 3.566673e+01 -1.130122e+02 255 255 251
-4.870504e+01 3.889867e+01 -1.107138e+02 123 101 99
-5.283932e+01 3.703647e+01 -1.030317e+02 226 208 171
-5.742609e+01 2.749180e+01 -9.895357e+01 85 77 60
-5.804175e+01 2.778566e+01 -9.837969e+01 224 209 157
6.976447e+00 2.495778e+01 -8.093618e+01 246 243 234
-5.372985e+01 3.464358e+01 -1.033162e+02 215 190 127
-5.372985e+01 3.464358e+01 -1.033162e+02 215 190 127
-5.184548e+01 3.603471e+01 -1.070415e+02 255 255 255
1.873018e+01 1.086641e+01 -4.248490e+01 215 208 126
-5.784342e+01 2.895211e+01 -9.842054e+01 221 198 154
-5.351719e+01 3.115662e+01 -1.048827e+02 186 160 132
-5.289790e+01 3.167869e+01 -1.059847e+02 238 217 188
-5.797568e+01 2.998785e+01 -9.685055e+01 131 117 95
-5.314516e+01 3.398735e+01 -1.048608e+02 136 117 100
-4.878938e+01 3.705364e+01 -1.111054e+02 123 105 90
-2.730604e+01 3.482778e+01 -1.022381e+02 246 244 231
-1.061445e+01 -3.310379e+00 2.742466e+00 60 60 59
1.271253e+01 9.719162e+00 -4.310785e+01 162 164 92
1.186039e+01 9.805672e+00 -4.303440e+01 149 168 83
-4.892348e+01 2.176789e+01 -8.440348e+01 182 165 108
1.485752e+01 1.427933e+01 -4.816317e+01 112 110 55
-4.931947e+01 2.994149e+01 -1.092806e+02 251 237 207
-4.947187e+01 3.175029e+01 -1.111418e+02 126 104 98
-4.947187e+01 3.175029e+01 -1.111418e+02 126 104 98
1.080040e+01 1.748078e+01 -5.349010e+01 251 252 246
-4.850634e+01 3.365356e+01 -1.119479e+02 127 102 96
-4.955620e+01 3.347896e+01 -1.101187e+02 254 225 193
-5.258215e+01 3.384669e+01 -1.051523e+02 249 223 196
-3.969789e+01 3.512516e+01 -1.084186e+02 191 187 175
-3.969789e+01 3.512516e+01 -1.084186e+02 191 187 175
-5.001102e+01 3.648568e+01 -1.086833e+02 231 202 178
-4.919773e+01 3.708549e+01 -1.103440e+02 243 229 201
-4.842770e+01 4.011100e+01 -1.109415e+02 138 123 124
-4.796879e+01 4.097295e+01 -1.111153e+02 254 255 252
1.683570e+01 9.253817e+00 -4.099712e+01 119 120 71
9.377888e+00 1.092194e+01 -4.584050e+01 117 112 51
7.314849e+00 1.221215e+01 -4.854572e+01 167 168 92
9.779176e+00 1.323285e+01 -4.933129e+01 214 213 131
8.842201e+00 1.408894e+01 -5.070388e+01 222 221 111
1.729752e+01 1.428787e+01 -4.799758e+01 232 228 148
2.895502e+01 1.301677e+01 -4.053215e+01 160 139 90
-5.283413e+01 2.995982e+01 -1.058624e+02 128 117 97
-5.283413e+01 2.995982e+01 -1.058624e+02 128 117 97
3.097673e+01 2.114522e+01 -6.679160e+01 249 249 239
-4.892951e+01 3.369124e+01 -1.114002e+02 246 230 201
-4.898027e+01 3.456877e+01 -1.115300e+02 212 191 165
-4.763958e+01 3.476296e+01 -1.120664e+02 255 255 251
-5.335544e+01 3.429968e+01 -1.037994e+02 232 212 169
-5.386759e+01 3.598357e+01 -1.025172e+02 218 207 141
-5.322384e+01 3.675377e+01 -1.028823e+02 213 196 161
-4.842619e+01 4.090120e+01 -1.108020e+02 159 141 139
-4.226407e+00 -1.296408e+00 6.013897e+00 254 253 246
-4.812849e+01 1.814021e+01 -7.807851e+01 253 224 159
1.558569e+01 1.056416e+01 -4.343673e+01 208 211 118
-5.432869e+01 2.128993e+01 -8.476042e+01 248 212 139
1.256616e+01 1.212625e+01 -4.643461e+01 153 125 83
1.712589e+01 1.196926e+01 -4.481169e+01 178 177 68
1.216871e+01 1.258716e+01 -4.732664e+01 234 228 117
-5.338173e+01 2.244998e+01 -8.638129e+01 177 202 118
-5.338173e+01 2.244998e+01 -8.638129e+01 177 202 118
2.444061e+01 1.234127e+01 -4.161559e+01 106 100 46
3.052155e+01 1.253554e+01 -3.922921e+01 210 189 119
-5.198548e+01 2.966449e+01 -1.062151e+02 99 101 92
-5.016498e+01 3.056971e+01 -1.092280e+02 110 99 84
-5.037690e+01 3.113588e+01 -1.093084e+02 114 102 93
-5.037690e+01 3.113588e+01 -1.093084e+02 114 102 93
-5.692341e+01 2.917957e+01 -9.952884e+01 200 183 124
-5.698632e+01 2.982903e+01 -9.941582e+01 230 212 151
-5.198403e+01 3.184929e+01 -1.063542e+02 233 236 239
-4.743714e+01 3.501468e+01 -1.131821e+02 201 198 181
-5.006499e+01 3.409586e+01 -1.088372e+02 128 108 94
-5.006499e+01 3.409586e+01 -1.088372e+02 128 108 94
-5.099478e+01 3.407406e+01 -1.077892e+02 228 222 193
-4.741227e+01 3.617102e+01 -1.130273e+02 204 199 189
-5.401049e+01 3.448500e+01 -1.061294e+02 172 139 115
-5.367795e+01 3.375522e+01 -1.027966e+02 171 146 109
-5.367795e+01 3.375522e+01 -1.027966e+02 171 146 109
-4.843808e+01 3.771048e+01 -1.111984e+02 249 225 205
-5.236829e+01 3.649684e+01 -1.052291e+02 142 134 136
-4.839735e+01 3.825043e+01 -1.110109e+02 229 204 185
-5.310834e+01 3.606619e+01 -1.029010e+02 200 185 148
-3.806474e+01 3.716411e+01 -1.063186e+02 237 239 218
-2.161285e+01 2.768693e+01 -7.106821e+01 246 241 222
-5.300767e+01 3.493593e+01 -9.176146e+01 236 220 168
-4.761771e+01 4.102380e+01 -1.117882e+02 175 173 158
1.539926e+01 8.447267e+00 -3.946534e+01 168 167 124
-5.389174e+01 1.720449e+01 -7.754851e+01 173 180 131
-5.302039e+01 1.794914e+01 -7.870794e+01 72 74 40
-4.959853e+01 1.779345e+01 -7.743672e+01 207 214 152
-4.959853e+01 1.779345e+01 -7.743672e+01 207 214 152
1.340531e+01 9.906921e+00 -4.299300e+01 216 223 115
-5.000349e+01 1.844762e+01 -7.816777e+01 208 213 154
-4.730604e+01 1.950367e+01 -7.965433e+01 213 224 171
-4.730604e+01 1.950367e+01 -7.965433e+01 213 224 171
7.596034e+00 1.201385e+01 -4.753572e+01 229 232 159
1.203925e+01 1.185993e+01 -4.608525e+01 223 231 125
-5.508487e+01 2.159520e+01 -8.547930e+01 105 116 63
-5.399274e+01 2.170827e+01 -8.515295e+01 178 194 136
1.639800e+01 1.220424e+01 -4.534072e+01 211 218 124
1.647856e+01 1.265816e+01 -4.636907e+01 103 95 48
1.543993e+01 1.294882e+01 -4.701133e+01 178 190 92
-4.759851e+01 2.385837e+01 -8.717350e+01 255 232 172
-4.966713e+01 3.137788e+01 -1.102149e+02 242 220 188
-5.496502e+01 2.975455e+01 -1.026309e+02 232 211 167
-4.942503e+01 3.235996e+01 -1.103909e+02 243 209 179
-4.978086e+01 3.212192e+01 -1.093402e+02 245 212 184
-5.092645e+01 3.245869e+01 -1.080976e+02 229 216 198
-4.821868e+01 3.367444e+01 -1.126189e+02 244 213 206
-5.732917e+01 3.017362e+01 -9.737629e+01 207 192 147
-4.787325e+01 3.424785e+01 -1.127514e+02 255 251 254
-5.280143e+01 3.248895e+01 -1.047837e+02 255 236 205
-5.205688e+01 3.287723e+01 -1.062957e+02 234 233 235
-5.091056e+01 3.327686e+01 -1.074958e+02 215 207 188
-5.118176e+01 3.362467e+01 -1.076073e+02 114 112 109
-4.827463e+01 3.492407e+01 -1.122981e+02 247 222 195
-4.983680e+01 3.420767e+01 -1.094079e+02 248 220 192
-5.208739e+01 3.344486e+01 -1.061579e+02 237 236 235
-5.277930e+01 3.324733e+01 -1.048795e+02 160 130 119
-5.042252e+01 3.451880e+01 -1.082075e+02 233 218 192
-5.042252e+01 3.451880e+01 -1.082075e+02 233 218 192
-4.835986e+01 3.653138e+01 -1.118354e+02 242 211 190
-5.300699e+01 3.451275e+01 -1.039633e+02 157 134 104
-5.019000e+01 3.583913e+01 -1.082832e+02 171 145 125
-5.223638e+01 3.593634e+01 -1.059159e+02 230 225 227
-5.229563e+01 3.581457e+01 -1.051902e+02 143 129 126
-5.310624e+01 3.581573e+01 -1.033646e+02 202 189 154
-4.198158e+01 3.755611e+01 -1.085856e+02 239 237 219
-4.116414e+01 3.763003e+01 -1.086073e+02 234 236 214
-5.237590e+01 3.705008e+01 -1.049924e+02 151 144 140
-4.886798e+01 4.047018e+01 -1.092512e+02 237 204 181
-2.232325e+01 2.848252e+01 -7.158787e+01 82 82 67
-5.164216e+01 1.812109e+01 -7.783832e+01 170 176 119
-4.995199e+01 1.813658e+01 -7.760191e+01 112 115 66
1.720074e+01 9.772596e+00 -4.180302e+01 145 133 86
1.055589e+01 1.064421e+01 -4.541160e+01 116 102 59
1.047707e+01 1.059513e+01 -4.516488e+01 116 102 59
1.142769e+01 1.068340e+01 -4.507335e+01 114 115 40
1.438883e+01 1.045813e+01 -4.384451e+01 160 158 100
2.097602e+01 9.782349e+00 -4.016394e+01 201 194 128
1.309608e+01 1.089666e+01 -4.456550e+01 235 228 159
1.500823e+01 1.113558e+01 -4.462544e+01 235 223 150
1.415618e+01 1.137429e+01 -4.536865e+01 184 170 102
1.723396e+01 1.100619e+01 -4.342334e+01 176 174 94
9.022454e+00 1.187807e+01 -4.749138e+01 165 148 71
1.894725e+01 1.085529e+01 -4.262791e+01 247 229 172
7.391520e+00 1.281559e+01 -4.938635e+01 222 217 156
-5.280958e+01 2.194749e+01 -8.591703e+01 187 200 132
1.126658e+01 1.256273e+01 -4.774976e+01 139 133 49
2.718938e+01 1.050364e+01 -3.790906e+01 142 127 72
-4.482632e+01 2.075424e+01 -7.993047e+01 232 212 157
8.629095e+00 1.325443e+01 -4.975560e+01 189 188 100
1.435600e+01 1.262740e+01 -4.646167e+01 252 232 172
-4.866024e+01 2.229156e+01 -8.491827e+01 244 222 159
-5.609714e+01 2.325798e+01 -8.815850e+01 209 219 134
-5.609714e+01 2.325798e+01 -8.815850e+01 209 219 134
1.491763e+01 1.277995e+01 -4.675333e+01 136 131 77
7.482834e+00 1.395183e+01 -5.131724e+01 97 96 47
-4.812409e+01 2.257326e+01 -8.475775e+01 219 216 149
1.795495e+01 1.291717e+01 -4.555615e+01 226 222 158
9.163029e+00 1.433866e+01 -5.104494e+01 113 89 27
1.989602e+01 1.375370e+01 -4.650243e+01 224 207 152
1.106244e+01 1.514306e+01 -5.206039e+01 214 209 140
1.893045e+01 1.405600e+01 -4.720755e+01 237 225 150
2.074874e+01 1.424631e+01 -4.648163e+01 133 149 46
2.074874e+01 1.424631e+01 -4.648163e+01 133 149 46
1.533311e+01 1.501188e+01 -4.966951e+01 178 172 80
1.683256e+01 1.507383e+01 -4.949698e+01 241 232 135
1.429009e+01 1.539821e+01 -5.066779e+01 248 250 146
-1.799979e+01 5.365060e+00 -5.900912e+00 76 102 126
-5.833368e+01 2.905430e+01 -9.747899e+01 222 210 163
-5.114193e+01 3.179683e+01 -1.080927e+02 120 118 114
-5.114193e+01 3.179683e+01 -1.080927e+02 120 118 114
-5.799466e+01 2.912171e+01 -9.632563e+01 219 196 154
-5.825282e+01 2.933684e+01 -9.589384e+01 227 207 154
-4.797387e+01 3.488424e+01 -1.129754e+02 251 244 236
-5.396149e+01 3.371667e+01 -1.038358e+02 235 215 155
-2.151123e+01 2.533622e+01 -7.152991e+01 208 205 189
-5.041604e+01 3.632726e+01 -1.079402e+02 144 131 112
-5.145570e+01 3.613842e+01 -1.070923e+02 224 235 227
-5.050197e+01 3.690039e+01 -1.080207e+02 140 127 108
-5.266428e+01 3.610473e+01 -1.043701e+02 229 215 180
-5.075402e+01 3.713604e+01 -1.070747e+02 238 228 203
-5.072971e+01 3.824714e+01 -1.077882e+02 238 220 196
-5.248475e+01 3.773829e+01 -1.050551e+02 156 150 145
-5.067329e+01 3.877743e+01 -1.073210e+02 239 220 200
-2.199517e+01 2.829166e+01 -7.109367e+01 94 90 81
4.034941e+01 2.213347e+01 -5.902886e+01 229 230 216
3.933369e+01 2.342887e+01 -6.039768e+01 144 151 151
4.153697e+01 1.884680e+01 -5.520717e+01 73 78 53
3.937993e+01 2.504096e+01 -5.980199e+01 147 152 150
4.046536e+01 2.651105e+01 -5.903750e+01 229 227 212
-8.278932e+00 -3.008587e+00 4.221570e+00 11 13 10
-2.784653e+01 3.066116e+01 -1.030905e+02 149 152 145
-2.113068e+01 2.839247e+01 -7.294531e+01 246 239 217
-7.233033e+00 -3.468534e+00 4.613214e+00 105 107 99
-2.595452e+01 1.785576e+01 -7.200521e+01 226 214 159
-2.631225e+01 2.028137e+01 -7.548686e+01 183 175 127
4.969451e+01 2.224697e+01 -5.378069e+01 167 168 162
2.790705e+00 3.139467e+01 -8.182645e+01 242 238 225
2.790705e+00 3.139467e+01 -8.182645e+01 242 238 225
3.431802e+01 7.982932e+00 -3.135852e+01 102 94 69
-2.731808e+01 2.019505e+01 -7.363704e+01 98 112 54
1.091406e+01 1.754998e+01 -5.396246e+01 251 249 236
1.162375e+01 1.792734e+01 -5.320150e+01 255 250 229
-2.834771e+01 3.199569e+01 -1.014005e+02 156 157 152
4.186595e+01 1.795759e+01 -5.374363e+01 56 60 40
3.021533e+01 2.413464e+01 -6.437197e+01 172 170 171
-2.219154e+01 2.844714e+01 -7.173647e+01 109 107 108
-3.428880e+01 4.091989e+01 -1.036499e+02 181 178 169
-2.666485e+01 1.822814e+01 -7.312117e+01 129 114 75
-2.762744e+01 1.799137e+01 -7.135299e+01 186 200 129
-2.300276e+01 1.923911e+01 -7.265639e+01 153 147 62
-2.088508e+01 2.042416e+01 -7.248028e+01 245 231 205
-1.955479e+01 2.045560e+01 -7.239329e+01 247 234 213
3.703083e+01 1.225366e+01 -3.614290e+01 205 207 119
4.080225e+01 1.737914e+01 -5.281116e+01 172 182 92
4.932469e+01 1.775747e+01 -5.313855e+01 134 142 83
4.130273e+01 1.909470e+01 -5.821532e+01 86 98 53
4.222561e+01 1.794798e+01 -5.339807e+01 92 94 54
4.135286e+01 1.816044e+01 -5.416683e+01 50 50 36
4.033742e+01 1.694686e+01 -4.763223e+01 233 230 213
4.170230e+01 1.909947e+01 -5.342414e+01 127 138 115
4.920985e+01 2.158524e+01 -5.434853e+01 173 172 171
-2.203600e+01 2.803365e+01 -7.237452e+01 114 102 94
-1.627779e+01 2.385145e-01 1.676889e+00 148 159 183
-2.786574e+01 1.734317e+01 -7.127479e+01 211 223 136
-2.627239e+01 1.834449e+01 -7.281021e+01 213 214 139
-2.614315e+01 1.935133e+01 -7.411850e+01 224 207 154
3.102132e+01 8.893191e+00 -3.424946e+01 105 101 55
2.864053e+01 9.430423e+00 -3.544022e+01 204 204 114
3.478185e+01 9.437910e+00 -3.396571e+01 178 188 92
-2.031030e+01 2.079006e+01 -7.218770e+01 252 251 232
-2.030207e+01 2.080290e+01 -7.233401e+01 252 251 232
3.675211e+01 1.080379e+01 -3.505964e+01 191 187 109
-2.342493e+01 2.756692e+01 -9.913224e+01 246 244 231
-2.572071e+01 3.030106e+01 -1.017723e+02 175 177 163
-2.118364e+01 2.295996e+01 -7.189339e+01 203 186 167
3.013698e+01 2.107228e+01 -6.650064e+01 250 248 238
-3.616011e+01 3.931129e+01 -1.056545e+02 181 178 169
-2.225844e+01 3.034512e+01 -7.089917e+01 222 209 166
-2.984522e+01 1.646391e+01 -7.123774e+01 45 41 37
-2.749676e+01 1.674293e+01 -7.138601e+01 251 211 160
-2.548274e+01 1.760277e+01 -7.223767e+01 148 146 81
-3.007020e+01 1.803585e+01 -7.197186e+01 115 118 68
-2.980049e+01 1.841677e+01 -7.229345e+01 201 211 120
-2.559211e+01 1.883791e+01 -7.313489e+01 176 179 95
-2.739424e+01 1.981720e+01 -7.402170e+01 202 229 110
3.405739e+01 9.411613e+00 -3.372601e+01 151 126 69
3.405739e+01 9.411613e+00 -3.372601e+01 151 126 69
-2.280338e+01 2.038707e+01 -7.456797e+01 230 227 153
-2.235294e+01 2.039372e+01 -7.442912e+01 204 207 123
2.498604e+01 1.221575e+01 -4.089743e+01 159 150 94
-1.990477e+01 2.312687e+01 -7.250037e+01 248 246 225
4.104878e+01 1.857563e+01 -5.479071e+01 53 53 39
4.133795e+01 1.927255e+01 -5.710889e+01 237 235 215
-2.155810e+01 2.920866e+01 -7.175778e+01 255 254 253
-2.169528e+01 3.035238e+01 -7.159667e+01 255 253 231
-1.614371e+01 1.193552e-01 1.695623e+00 233 248 250
-2.904220e+01 1.733998e+01 -7.015757e+01 96 116 49
-2.725275e+01 1.841218e+01 -7.277103e+01 79 99 22
-2.778755e+01 1.884206e+01 -7.205155e+01 205 225 146
-2.924567e+01 1.915713e+01 -7.235789e+01 190 213 126
-2.768787e+01 1.947935e+01 -7.279937e+01 231 253 184
3.672756e+01 9.483826e+00 -3.242083e+01 125 120 52
-2.126941e+01 2.034008e+01 -7.288270e+01 91 89 64
-2.126941e+01 2.034008e+01 -7.288270e+01 91 89 64
-2.011950e+01 2.040027e+01 -7.238966e+01 232 227 192
-2.118887e+01 2.088712e+01 -7.244528e+01 91 89 86
3.612768e+01 1.041705e+01 -3.391529e+01 210 209 108
3.612768e+01 1.041705e+01 -3.391529e+01 210 209 108
-2.312372e+01 2.730949e+01 -9.907108e+01 201 204 169
-2.312372e+01 2.730949e+01 -9.907108e+01 201 204 169
3.561868e+01 1.054279e+01 -3.430470e+01 109 96 43
-2.116548e+01 2.140196e+01 -7.256338e+01 87 80 70
-2.046697e+01 2.215413e+01 -7.175262e+01 255 254 246
-2.050000e+01 2.477691e+01 -7.167758e+01 255 254 244
-2.103510e+01 2.699941e+01 -7.114209e+01 255 254 245
1.390009e+01 3.103684e+01 -7.642694e+01 142 134 135
-2.196766e+01 3.038478e+01 -7.095383e+01 120 109 83
-3.014891e+01 1.707536e+01 -7.048643e+01 55 73 15
-2.789309e+01 1.760378e+01 -7.099512e+01 84 89 30
-2.789309e+01 1.760378e+01 -7.099512e+01 84 89 30
-2.547015e+01 1.860715e+01 -7.318779e+01 236 224 174
-2.866795e+01 1.921277e+01 -7.277151e+01 83 96 46
-2.169935e+01 1.902935e+01 -7.145272e+01 229 234 129
3.533928e+01 8.791675e+00 -3.185037e+01 145 133 73
-2.349706e+01 1.982355e+01 -7.332515e+01 226 226 139
2.542062e+01 1.101455e+01 -3.950953e+01 190 192 114
-2.166881e+01 2.022655e+01 -7.296613e+01 225 218 184
2.884503e+01 1.062317e+01 -3.719792e+01 135 126 44
3.211253e+01 1.052775e+01 -3.594249e+01 131 144 67
3.254134e+01 1.050558e+01 -3.557448e+01 105 99 40
2.619848e+01 1.193994e+01 -4.038513e+01 109 118 46
2.516240e+01 1.204258e+01 -4.070776e+01 123 120 58
-2.116571e+01 2.171087e+01 -7.228472e+01 186 181 160
3.539923e+01 1.181911e+01 -3.654086e+01 146 131 74
2.809067e+01 1.287321e+01 -4.051296e+01 136 128 51
3.674976e+01 1.150442e+01 -3.508848e+01 186 178 109
3.582925e+01 1.187601e+01 -3.578218e+01 161 172 85
3.916772e+01 1.631280e+01 -4.635880e+01 93 103 70
4.116606e+01 1.921780e+01 -5.659726e+01 240 238 221
4.168743e+01 1.858161e+01 -5.348136e+01 179 190 131
4.207505e+01 1.857417e+01 -5.333638e+01 212 218 180
4.206969e+01 1.872059e+01 -5.361436e+01 77 82 57
4.206969e+01 1.872059e+01 -5.361436e+01 77 82 57
-2.196469e+01 2.980865e+01 -7.127464e+01 240 226 198
1.342768e+01 3.084905e+01 -7.602514e+01 132 125 133
-3.104178e+00 -3.288192e+00 5.291056e+00 170 184 185
1.790745e+01 -1.422991e+00 -1.929677e+02 12 14 13
-3.485614e+01 3.313398e+01 -1.059569e+02 178 178 165
