ply
format ascii 1.0
element vertex 367
property float x
property float y
property float z
property uchar diffuse_red
property uchar diffuse_green
property uchar diffuse_blue
end_header
-2.452101e+00 -1.097094e+00 -6.855262e+00 196 192 195
-2.326531e+00 -1.150750e+00 -6.838455e+00 176 170 169
-2.326531e+00 -1.150750e+00 -6.838455e+00 176 170 169
-2.448799e+00 3.947757e-01 -6.755203e+00 195 186 184
-1.989309e+00 1.609618e+00 -6.528100e+00 171 171 179
-1.788169e+00 1.628979e-01 -6.639290e+00 160 141 122
-1.952332e+00 4.371366e-01 -6.652286e+00 186 172 175
-2.124485e+00 5.447265e-01 -6.684151e+00 183 180 182
-2.552052e+00 5.807346e-01 -6.753470e+00 187 183 187
-1.701740e+00 8.585575e-01 -6.552398e+00 214 215 213
-1.765591e+00 8.568038e-01 -6.556207e+00 218 218 216
-1.738686e+00 8.870089e-01 -6.542184e+00 141 140 143
-1.915749e+00 1.611477e+00 -6.539488e+00 182 183 185
-2.226681e+00 -1.185848e+00 -6.827333e+00 181 173 174
-1.999805e+00 4.476133e-01 -6.658760e+00 181 173 174
-2.414503e+00 4.981870e-01 -6.734072e+00 191 187 187
1.068071e+00 3.796530e-01 -4.390169e+00 173 190 198
1.068071e+00 3.796530e-01 -4.390169e+00 173 190 198
-1.603283e+00 8.617301e-01 -6.515369e+00 204 204 201
-1.603283e+00 8.617301e-01 -6.515369e+00 204 204 201
-1.061407e-01 -2.419472e-01 -6.343388e+00 105 97 90
4.722300e-01 4.377166e-01 -4.685662e+00 171 185 188
7.487314e-01 4.586261e-01 -4.634786e+00 175 186 191
-2.196899e+00 9.027710e-01 -6.639930e+00 230 230 229
-6.870151e-01 8.242118e-01 -5.007058e+00 53 51 41
-2.181741e+00 1.079244e+00 -6.625401e+00 193 188 190
-2.181741e+00 1.079244e+00 -6.625401e+00 193 188 190
-1.922515e+00 1.127813e+00 -6.569355e+00 178 173 180
-2.022382e+00 1.641091e+00 -6.546316e+00 231 235 238
-2.268194e+00 1.701908e+00 -6.578208e+00 159 164 170
-2.298323e+00 1.708996e+00 -6.589327e+00 234 238 239
1.418654e+00 3.868624e-01 -4.496675e+00 150 158 161
5.158635e-01 3.944947e-01 -4.673429e+00 123 129 137
7.805893e-01 4.001485e-01 -4.624133e+00 159 169 176
4.365223e-01 1.309075e+00 -6.046465e+00 163 163 153
-2.307131e+00 1.732165e+00 -6.597168e+00 191 195 205
-2.178625e+00 1.800410e+00 -6.566009e+00 236 236 242
-3.259226e+00 -9.282609e-01 -7.032190e+00 227 227 225
-7.193455e-01 7.359693e-01 -5.029231e+00 113 116 104
-2.312997e+00 1.589364e+00 -6.623533e+00 166 166 175
-5.888310e-01 1.152492e+00 -6.281485e+00 137 130 124
-1.776712e-01 3.770620e-01 -4.800209e+00 157 162 166
-2.713721e+00 7.801500e-01 -6.789165e+00 230 231 234
-2.595354e+00 -2.513225e+00 -7.021038e+00 103 100 97
-2.857540e+00 -2.541353e+00 -7.057962e+00 194 198 198
-3.336007e+00 -2.427924e+00 -7.208563e+00 217 218 218
-2.686267e+00 -2.506866e+00 -7.054828e+00 91 91 88
-2.700465e+00 -2.446587e+00 -7.026504e+00 194 193 198
-2.651051e+00 -2.287457e+00 -6.982029e+00 202 205 210
-2.716092e+00 -2.240868e+00 -6.997124e+00 124 121 116
-1.986566e+00 1.608951e+00 -6.521110e+00 171 171 179
-2.576580e+00 1.764771e+00 -6.650233e+00 233 240 243
-2.723252e+00 -2.395196e+00 -7.011455e+00 128 133 111
-2.841115e+00 -2.310558e+00 -7.044940e+00 197 201 202
-2.716275e+00 -2.291917e+00 -7.025708e+00 175 175 178
-2.810167e+00 -2.267119e+00 -7.033916e+00 132 131 136
9.402476e-01 -1.665897e-01 -5.577941e+00 143 140 134
-2.515605e+00 1.294671e-01 -6.774490e+00 177 173 177
-3.174013e+00 4.932448e-01 -6.915574e+00 187 178 181
-2.702256e+00 5.114797e-01 -6.791233e+00 194 186 194
1.083869e+00 4.026619e-01 -4.385763e+00 76 75 86
-2.581697e+00 1.614937e+00 -6.689450e+00 185 188 197
-2.581697e+00 1.614937e+00 -6.689450e+00 185 188 197
-2.626507e+00 1.717562e+00 -6.679832e+00 161 164 173
-1.140474e+00 -1.292167e+00 -5.091749e+00 74 84 90
-1.714332e+00 1.762926e-01 -6.627003e+00 207 204 206
-1.974644e+00 5.196892e-01 -6.649592e+00 186 181 185
-1.974644e+00 5.196892e-01 -6.649592e+00 186 181 185
1.523371e+00 3.979977e-01 -4.473909e+00 151 162 162
-2.804646e+00 5.963668e-01 -6.810043e+00 170 169 167
6.364365e-01 4.394611e-01 -4.647700e+00 171 181 190
1.162719e+00 8.176197e-01 -5.431944e+00 38 36 41
-6.882018e-01 8.509073e-01 -5.018081e+00 49 46 37
-3.125841e+00 1.160537e+00 -6.815452e+00 185 185 195
-6.926930e-01 1.014752e+00 -4.995659e+00 114 116 109
2.051206e+00 1.019276e+00 -4.981179e+00 67 57 53
9.745416e-03 -1.926293e-01 -6.281962e+00 165 163 159
-1.825266e+00 3.022763e-02 -6.659163e+00 197 187 187
-1.825266e+00 3.022763e-02 -6.659163e+00 197 187 187
1.697780e+00 3.551104e-01 -4.448045e+00 140 150 152
1.667216e+00 3.690279e-01 -4.448454e+00 145 153 155
8.156109e-01 4.040555e-01 -4.618632e+00 119 127 136
8.156109e-01 4.040555e-01 -4.618632e+00 119 127 136
5.685665e-01 4.390166e-01 -4.664483e+00 176 180 189
3.695197e-01 4.630447e-01 -4.722252e+00 175 189 198
1.581842e-01 5.092776e-01 -4.756797e+00 167 181 187
-1.814001e+00 8.905863e-01 -6.559901e+00 146 145 151
-1.814001e+00 8.905863e-01 -6.559901e+00 146 145 151
9.479276e-01 7.822824e-01 -5.492495e+00 130 133 116
-7.066243e-01 7.309771e-01 -5.040921e+00 56 55 52
1.629069e+00 8.866221e-01 -5.318801e+00 125 129 130
1.629069e+00 8.866221e-01 -5.318801e+00 125 129 130
1.587147e+00 9.156138e-01 -5.324586e+00 134 134 139
1.576109e+00 9.251167e-01 -5.343109e+00 178 178 178
-5.337540e-01 1.082677e+00 -6.285974e+00 134 128 126
-7.009893e-01 8.837040e-01 -5.004186e+00 108 114 101
-2.515249e-01 1.142420e+00 -6.203455e+00 177 173 165
3.090894e-02 1.265750e+00 -6.129567e+00 186 180 176
9.773518e-01 1.190701e+00 -5.442086e+00 103 107 92
9.773518e-01 1.190701e+00 -5.442086e+00 103 107 92
-5.382824e-01 1.550174e+00 -6.220705e+00 196 197 195
-1.639612e+00 1.625980e+00 -6.472726e+00 224 225 230
-1.639612e+00 1.625980e+00 -6.472726e+00 224 225 230
-2.116442e+00 1.706262e+00 -6.575252e+00 185 188 197
-3.174777e+00 1.833745e+00 -6.788055e+00 183 192 199
-2.203511e+00 1.774108e+00 -6.578717e+00 225 226 230
3.205969e-02 -1.950997e-01 -6.288864e+00 82 73 68
8.889667e-01 2.952453e-01 -4.620442e+00 95 104 107
5.805519e-01 3.064905e-01 -4.683317e+00 109 120 130
6.524323e-01 3.862610e-01 -4.647017e+00 161 168 174
1.314772e+00 3.818272e-01 -4.511931e+00 144 148 149
1.314772e+00 3.818272e-01 -4.511931e+00 144 148 149
-2.840380e+00 5.445483e-01 -6.824111e+00 178 177 182
1.402279e+00 3.931731e-01 -4.494535e+00 103 113 117
6.115988e-01 4.281970e-01 -4.650706e+00 175 181 189
1.470435e+00 4.403330e-01 -4.481595e+00 155 166 171
4.107610e-01 4.564839e-01 -4.697534e+00 184 192 204
1.689658e-01 4.642681e-01 -4.755359e+00 152 155 159
-7.061893e-01 8.125442e-01 -5.013858e+00 109 110 99
-5.801206e-01 1.076613e+00 -6.295957e+00 128 125 115
-1.339232e-01 1.143892e+00 -6.170669e+00 127 123 114
9.234458e-01 1.044579e+00 -5.474760e+00 113 111 100
-3.726625e-01 1.222435e+00 -6.224533e+00 198 194 186
1.058518e+00 1.098092e+00 -5.436961e+00 168 168 158
1.159094e+00 1.175743e+00 -5.397511e+00 124 130 119
4.381418e-01 1.305624e+00 -6.023188e+00 163 163 153
9.597997e-01 1.212697e+00 -5.440479e+00 142 146 130
1.102832e+00 1.214554e+00 -5.405962e+00 164 167 147
-2.504952e+00 1.730271e+00 -6.657309e+00 181 184 200
-2.504952e+00 1.730271e+00 -6.657309e+00 181 184 200
-1.856814e+00 1.767143e+00 -6.498730e+00 192 191 198
-2.972098e+00 1.861806e+00 -6.747725e+00 193 197 206
-2.972098e+00 1.861806e+00 -6.747725e+00 193 197 206
1.891032e+00 7.324066e-01 -4.974075e+00 36 32 23
-2.111515e+00 9.798529e-01 -6.623905e+00 228 229 231
-1.707807e+00 -4.653041e-02 -6.695044e+00 212 213 213
-1.731242e+00 2.850500e-02 -6.642859e+00 167 144 126
-1.694706e+00 1.979690e-01 -6.656591e+00 222 220 221
2.736706e+00 -1.118732e+00 -6.258148e+00 27 25 26
-1.815531e+00 4.567635e-01 -6.632457e+00 218 217 220
-2.518669e+00 7.850534e-01 -6.759116e+00 217 218 219
1.814584e+00 8.385988e-01 -4.387744e+00 69 59 57
-6.992846e-01 1.191064e+00 -4.761125e+00 119 127 134
1.088939e+00 1.777633e+00 -5.341580e+00 110 116 83
-2.243092e+00 2.234166e+00 -6.536205e+00 168 139 124
-1.765322e+00 -1.350074e+00 -6.781536e+00 235 233 234
-2.142721e+00 -1.132007e+00 -6.818158e+00 166 154 148
-1.730026e+00 -1.475755e-01 -6.646817e+00 241 241 243
-1.730026e+00 -1.475755e-01 -6.646817e+00 241 241 243
-1.452380e+00 1.253974e-01 -6.601978e+00 219 219 218
-1.523902e+00 1.261852e-01 -6.613109e+00 217 217 219
-1.584313e+00 3.967729e-01 -6.577121e+00 199 189 190
-1.675434e+00 4.038219e-01 -6.599849e+00 188 182 180
-1.675434e+00 4.038219e-01 -6.599849e+00 188 182 180
-1.851117e+00 4.193119e-01 -6.635333e+00 185 173 173
-1.851117e+00 4.193119e-01 -6.635333e+00 185 173 173
-1.695128e+00 4.467036e-01 -6.598588e+00 229 227 232
-2.058479e+00 4.570996e-01 -6.630100e+00 192 185 185
-2.196507e+00 4.820371e-01 -6.692727e+00 191 186 188
-1.729253e+00 4.903868e-01 -6.608578e+00 183 178 181
1.177297e+00 3.595936e-01 -4.370841e+00 176 189 190
1.177297e+00 3.595936e-01 -4.370841e+00 176 189 190
-2.326250e+00 8.996883e-01 -6.635557e+00 229 227 228
-2.280575e+00 1.781406e+00 -6.592983e+00 238 242 246
1.258934e+00 -1.010436e+00 -5.623789e+00 139 141 136
-2.587844e+00 -1.049170e+00 -6.905666e+00 237 239 235
-1.640341e+00 -9.636010e-01 -6.725562e+00 230 229 234
-1.491308e+00 2.223376e-01 -6.595578e+00 171 163 160
2.118646e+00 2.102981e-01 -4.369848e+00 79 87 100
-1.428847e+00 2.698295e-01 -6.572527e+00 213 214 209
2.092793e+00 2.157013e-01 -4.372193e+00 169 186 195
-2.127348e+00 2.912816e-01 -6.690331e+00 194 189 188
-1.443318e+00 3.349860e-01 -6.588113e+00 214 214 216
-1.507769e+00 3.384120e-01 -6.591720e+00 219 219 223
-1.507769e+00 3.384120e-01 -6.591720e+00 219 219 223
-1.461600e+00 3.781112e-01 -6.577851e+00 176 169 169
1.016157e+00 2.935422e-01 -4.624138e+00 72 86 86
-1.532195e+00 4.182804e-01 -6.579245e+00 223 222 228
-1.770532e+00 4.298183e-01 -6.638894e+00 185 176 174
-2.101901e+00 5.014484e-01 -6.660323e+00 231 231 231
-2.101901e+00 5.014484e-01 -6.660323e+00 231 231 231
-1.765982e+00 5.273916e-01 -6.623989e+00 222 223 225
-1.765982e+00 5.273916e-01 -6.623989e+00 222 223 225
-1.825469e+00 5.368886e-01 -6.611899e+00 218 219 221
-1.717603e+00 5.485867e-01 -6.580195e+00 169 165 167
1.086254e+00 4.022314e-01 -4.394047e+00 76 75 86
-6.131174e-03 4.669371e-01 -4.582469e+00 195 204 209
1.332416e+00 5.189137e-01 -4.465392e+00 165 183 189
-1.635248e+00 8.571038e-01 -6.531939e+00 212 212 212
-1.696487e+00 9.211369e-01 -6.520860e+00 218 217 213
4.521922e-02 1.458322e+00 -6.168896e+00 108 107 102
-2.159933e+00 2.034647e+00 -6.521021e+00 191 192 195
1.511539e+00 1.759978e+00 -5.189284e+00 131 134 119
-7.316482e-01 1.691888e+00 -4.775851e+00 69 71 67
-2.169492e+00 -1.438860e+00 -6.848294e+00 194 193 194
-2.169492e+00 -1.438860e+00 -6.848294e+00 194 193 194
-1.680971e+00 -1.344253e+00 -6.760600e+00 234 234 231
-1.736986e+00 -1.147838e+00 -6.756281e+00 166 160 160
-1.736986e+00 -1.147838e+00 -6.756281e+00 166 160 160
1.286320e+00 -9.165379e-01 -5.546057e+00 72 58 56
9.890675e-01 -9.130227e-01 -5.643082e+00 162 171 175
-1.645939e+00 -2.363020e-01 -6.641262e+00 233 232 233
-1.798928e+00 2.389611e-03 -6.638014e+00 157 139 121
-1.778198e+00 2.872868e-02 -6.658946e+00 190 178 153
-1.659434e+00 7.421741e-02 -6.630633e+00 193 187 186
-1.408166e+00 1.430893e-01 -6.583499e+00 220 220 218
-1.443298e+00 1.642214e-01 -6.601287e+00 162 151 145
-2.447206e+00 2.410168e-01 -6.755231e+00 194 188 188
2.067758e+00 2.059973e-01 -4.419675e+00 83 94 101
9.633235e-01 2.834291e-01 -4.553514e+00 180 191 200
-2.304139e+00 3.862904e-01 -6.710118e+00 192 186 189
-1.521723e+00 3.814177e-01 -6.570172e+00 184 173 177
-1.521723e+00 3.814177e-01 -6.570172e+00 184 173 177
1.011360e+00 3.233350e-01 -4.550615e+00 186 196 204
-2.000257e+00 4.472879e-01 -6.661896e+00 181 173 174
-1.538414e+00 4.718617e-01 -6.573950e+00 173 171 173
-1.538414e+00 4.718617e-01 -6.573950e+00 173 171 173
-2.152314e+00 5.016403e-01 -6.666217e+00 238 240 242
-1.798037e+00 5.014111e-01 -6.608460e+00 186 180 183
-1.798037e+00 5.014111e-01 -6.608460e+00 186 180 183
-1.833095e+00 5.084589e-01 -6.594764e+00 178 177 175
-2.067949e+00 5.369506e-01 -6.657948e+00 186 184 187
-2.212933e+00 5.463313e-01 -6.674627e+00 190 188 191
-2.212933e+00 5.463313e-01 -6.674627e+00 190 188 191
-1.657290e+00 5.753013e-01 -6.583868e+00 226 227 229
2.481419e-02 4.531258e-01 -4.602321e+00 154 162 173
-1.696841e+00 6.348275e-01 -6.585497e+00 221 219 222
-1.860888e+00 6.479818e-01 -6.615163e+00 229 228 231
-2.024810e+00 6.653426e-01 -6.627429e+00 240 240 240
-7.820478e-01 7.745422e-01 -4.819372e+00 82 95 110
-1.445756e+00 1.164353e+00 -6.484308e+00 223 223 225
6.172584e-01 9.342496e-01 -4.507308e+00 182 197 198
-2.073218e+00 1.469373e+00 -6.544660e+00 184 183 188
2.112131e-02 1.478683e+00 -6.168563e+00 162 160 156
-1.594574e+00 1.634511e+00 -6.473144e+00 224 225 232
-1.534637e+00 1.635026e+00 -6.444379e+00 225 228 230
-4.444957e-01 1.622418e+00 -6.283582e+00 202 202 198
-1.306624e+00 1.740524e+00 -6.432061e+00 175 178 187
-1.306624e+00 1.740524e+00 -6.432061e+00 175 178 187
-1.952782e+00 1.768372e+00 -6.495020e+00 189 191 197
-1.952782e+00 1.768372e+00 -6.495020e+00 189 191 197
-3.995568e-01 1.707380e+00 -6.242317e+00 144 143 138
-1.398973e+00 1.786806e+00 -6.418309e+00 234 235 240
1.152781e+00 1.523076e+00 -5.353896e+00 169 170 156
1.152781e+00 1.523076e+00 -5.353896e+00 169 170 156
5.477014e-01 1.818532e+00 -6.011564e+00 151 155 141
-3.031491e-01 1.900948e+00 -6.201596e+00 153 146 151
-4.087863e-01 1.944534e+00 -6.233537e+00 211 212 214
-4.087863e-01 1.944534e+00 -6.233537e+00 211 212 214
-3.917832e-01 1.959032e+00 -6.209012e+00 153 146 153
-2.376931e-01 1.973018e+00 -6.199290e+00 135 127 131
-7.395650e-01 1.612773e+00 -4.848665e+00 185 199 211
-2.038027e+00 2.271332e+00 -6.477139e+00 218 217 216
-2.109966e+00 -2.274602e+00 -6.919647e+00 176 175 182
-2.135194e+00 -2.077865e+00 -6.908728e+00 177 176 181
-2.532289e+00 -1.416263e+00 -6.922542e+00 195 194 200
7.799954e-01 -1.113549e+00 -6.271517e+00 77 79 68
-1.861444e+00 -1.173575e+00 -6.767440e+00 176 169 169
-2.017895e+00 -1.170919e+00 -6.791208e+00 178 173 176
-1.567037e+00 -1.132193e+00 -6.707494e+00 181 176 174
-2.001078e+00 -1.151769e+00 -6.798403e+00 240 239 241
-2.165460e+00 -1.101814e+00 -6.815301e+00 167 156 136
-2.343185e+00 -9.699091e-01 -6.839945e+00 168 165 172
1.122708e+00 -3.534295e-01 -4.222880e+00 137 144 137
-1.677600e+00 -2.833626e-01 -6.673174e+00 238 238 239
-1.736378e+00 -2.695204e-01 -6.681022e+00 235 235 235
-2.218916e+00 -2.274637e-01 -6.742835e+00 239 238 243
-2.381265e+00 -2.105923e-01 -6.784570e+00 238 241 241
-1.683898e+00 -1.527849e-01 -6.655168e+00 234 234 234
-1.850250e+00 1.592941e-02 -6.679217e+00 154 136 125
-1.771860e+00 1.116029e-01 -6.644990e+00 107 95 77
-1.514013e+00 2.198237e-01 -6.582997e+00 167 159 157
-1.474637e+00 2.543767e-01 -6.579781e+00 220 217 216
2.112383e+00 2.383310e-01 -4.411399e+00 88 102 118
-1.551244e+00 3.144342e-01 -6.592147e+00 189 181 182
-1.773994e+00 3.424957e-01 -6.636120e+00 181 172 175
1.028764e+00 3.104747e-01 -4.600600e+00 85 92 101
-1.757224e+00 4.981432e-01 -6.610583e+00 182 178 177
2.870437e-01 4.324032e-01 -4.733120e+00 169 177 186
1.057948e+00 4.090590e-01 -4.389269e+00 149 162 168
4.589042e-01 4.722468e-01 -4.697003e+00 182 192 201
-1.743279e+00 6.395018e-01 -6.603865e+00 231 232 229
-1.961698e+00 7.009604e-01 -6.625480e+00 230 232 231
1.358812e+00 5.063478e-01 -4.562729e+00 82 94 101
-2.149118e+00 7.771381e-01 -6.626491e+00 225 224 226
-2.231297e+00 7.862728e-01 -6.664839e+00 230 228 231
-6.880044e-01 7.907170e-01 -4.974104e+00 57 57 46
-2.025891e+00 1.054822e+00 -6.577841e+00 229 229 230
-2.025891e+00 1.054822e+00 -6.577841e+00 229 229 230
-1.924377e+00 1.129478e+00 -6.576068e+00 178 173 180
-1.448251e+00 1.188512e+00 -6.476242e+00 169 168 173
-1.656730e+00 1.266583e+00 -6.514062e+00 231 225 223
-6.247793e-02 1.288249e+00 -6.214717e+00 175 170 166
-6.247793e-02 1.288249e+00 -6.214717e+00 175 170 166
-1.697189e+00 1.399326e+00 -6.507192e+00 233 230 233
-2.216749e+00 1.448817e+00 -6.586461e+00 232 232 232
-2.305786e+00 1.452598e+00 -6.606054e+00 238 238 240
-2.066350e+00 1.597802e+00 -6.545899e+00 178 178 187
-1.656916e+00 1.600527e+00 -6.466069e+00 181 180 194
-1.933989e+00 1.641404e+00 -6.528858e+00 235 237 242
4.380961e-02 1.554263e+00 -6.161074e+00 180 179 176
3.133501e-01 1.554765e+00 -6.111302e+00 93 90 80
3.133501e-01 1.554765e+00 -6.111302e+00 93 90 80
-1.534750e+00 1.701096e+00 -6.450286e+00 156 155 166
-1.534750e+00 1.701096e+00 -6.450286e+00 156 155 166
-3.065663e-01 1.712914e+00 -6.222808e+00 150 150 151
-3.887550e-01 1.732155e+00 -6.258424e+00 205 205 202
-1.593797e-01 1.839994e+00 -6.179124e+00 202 203 197
-2.782381e-01 1.903983e+00 -6.175409e+00 211 211 211
-2.782381e-01 1.903983e+00 -6.175409e+00 211 211 211
-3.476339e-01 1.931185e+00 -6.213089e+00 217 219 218
-1.982101e+00 2.192372e+00 -6.474286e+00 199 185 176
-2.025701e+00 2.309990e+00 -6.424820e+00 161 157 162
-2.421376e+00 -2.067599e+00 -6.947134e+00 167 166 172
-2.129629e+00 -1.407417e+00 -6.849719e+00 238 238 233
-1.479505e+00 -1.054040e+00 -6.678128e+00 174 173 179
-2.439484e+00 -1.087777e+00 -6.882732e+00 194 190 191
-2.598377e+00 -2.136113e-01 -6.831954e+00 243 243 243
-2.399360e+00 -2.018780e-01 -6.766256e+00 176 175 181
-1.645129e+00 5.375191e-02 -6.645823e+00 159 145 144
-1.378958e+00 2.263587e-01 -6.582747e+00 224 220 219
-2.126354e+00 3.191759e-01 -6.684054e+00 233 233 233
-1.500454e+00 4.614956e-01 -6.545656e+00 180 175 179
-2.353383e+00 7.683051e-01 -6.684022e+00 241 243 242
-1.699597e+00 7.676767e-01 -6.586849e+00 205 206 201
-2.108298e+00 1.075961e+00 -6.608901e+00 187 186 193
-5.301681e-01 1.044282e+00 -6.320987e+00 143 140 137
-1.380247e+00 1.179162e+00 -6.474812e+00 209 209 208
-2.168605e+00 1.452538e+00 -6.576219e+00 231 230 234
-1.875293e+00 1.456873e+00 -6.529299e+00 230 230 228
-2.189594e+00 1.525869e+00 -6.570700e+00 238 239 245
-1.254518e+00 1.528444e+00 -6.421540e+00 225 226 232
-2.567439e+00 1.625114e+00 -6.627193e+00 226 231 235
-1.601175e+00 1.609235e+00 -6.455868e+00 154 157 164
6.450982e-02 1.545589e+00 -6.132140e+00 119 119 115
-1.238782e+00 1.716155e+00 -6.399471e+00 226 227 229
-6.373551e-01 1.342682e+00 -4.901011e+00 51 53 46
-2.059607e+00 1.811670e+00 -6.532992e+00 243 244 249
-1.702400e+00 1.810853e+00 -6.498068e+00 235 234 239
-1.405872e+00 1.817654e+00 -6.415516e+00 180 177 184
-2.324199e-01 1.905336e+00 -6.180952e+00 131 124 122
-3.843523e-01 1.910679e+00 -6.203852e+00 212 213 211
-4.313776e-01 1.927426e+00 -6.202774e+00 156 152 154
-2.068738e+00 2.036947e+00 -6.503417e+00 184 184 188
-2.560482e-01 1.948527e+00 -6.173093e+00 199 198 200
-2.247595e+00 2.252149e+00 -6.505321e+00 205 205 198
-1.930625e+00 2.260678e+00 -6.456977e+00 209 204 200
-1.767379e+00 2.249015e+00 -6.402720e+00 151 147 143
-2.101306e+00 2.285900e+00 -6.488140e+00 218 219 218
-1.574488e+00 2.295299e+00 -6.383043e+00 169 167 165
1.671803e+00 3.933030e-01 -4.444081e+00 143 154 156
1.654958e+00 8.595236e-01 -5.292011e+00 87 87 89
6.464508e-01 4.225187e-01 -4.652273e+00 107 112 126
6.464508e-01 4.225187e-01 -4.652273e+00 107 112 126
-2.141232e+00 6.118047e-01 -6.668355e+00 191 190 189
-1.584305e+00 8.814867e-01 -6.512178e+00 109 114 101
-1.584305e+00 8.814867e-01 -6.512178e+00 109 114 101
-7.513781e-01 8.851531e-01 -4.961399e+00 127 143 166
-1.896152e-02 -1.194916e+00 -6.397963e+00 168 167 174
-2.276907e+00 1.082367e+00 -6.642960e+00 188 188 187
-2.276907e+00 1.082367e+00 -6.642960e+00 188 188 187
1.349726e-01 7.738287e-02 4.628095e-02 0 255 0
1.339262e-01 7.681935e-02 -3.704925e-03 255 255 0
9.339867e-01 7.219942e-01 -1.976092e-01 255 0 0
9.237242e-01 7.115195e-01 -2.454105e-01 255 255 0
-5.114796e-01 -1.813878e-01 6.798548e-01 0 255 0
-5.019274e-01 -1.786057e-01 6.308546e-01 255 255 0
