ply
format ascii 1.0
element vertex 428
property float x
property float y
property float z
property uchar diffuse_red
property uchar diffuse_green
property uchar diffuse_blue
end_header
-2.450723e+00 -1.103143e+00 -6.854120e+00 196 192 195
-2.324765e+00 -1.156962e+00 -6.835126e+00 176 170 169
-2.324765e+00 -1.156962e+00 -6.835126e+00 176 170 169
-2.448870e+00 3.929975e-01 -6.759741e+00 195 186 184
-1.995051e+00 1.616577e+00 -6.541194e+00 171 171 179
-1.786890e+00 1.589994e-01 -6.635276e+00 160 141 122
-1.951720e+00 4.346275e-01 -6.651610e+00 186 172 175
-2.124196e+00 5.430161e-01 -6.685769e+00 183 180 182
-2.553501e+00 5.800825e-01 -6.761303e+00 187 183 187
-1.702697e+00 8.580561e-01 -6.553890e+00 214 215 213
-1.766950e+00 8.564390e-01 -6.558710e+00 218 218 216
-1.740338e+00 8.868610e-01 -6.545143e+00 141 140 143
-1.920220e+00 1.617967e+00 -6.550438e+00 182 183 185
-2.224573e+00 -1.192151e+00 -6.822247e+00 181 173 174
-1.999369e+00 4.452418e-01 -6.658818e+00 181 173 174
-2.415105e+00 4.968306e-01 -6.739291e+00 191 187 187
1.066427e+00 3.745730e-01 -4.414681e+00 173 190 198
1.066427e+00 3.745730e-01 -4.414681e+00 173 190 198
-1.604676e+00 8.612175e-01 -6.516979e+00 204 204 201
-1.604676e+00 8.612175e-01 -6.516979e+00 204 204 201
-1.040528e-01 -2.506398e-01 -6.325444e+00 105 97 90
4.589360e-01 4.342704e-01 -4.714381e+00 171 185 188
7.412594e-01 4.554431e-01 -4.660753e+00 175 186 191
-2.199301e+00 9.034386e-01 -6.647044e+00 230 230 229
-7.180931e-01 8.298955e-01 -5.048808e+00 53 51 41
-2.184790e+00 1.081168e+00 -6.633868e+00 193 188 190
-2.184790e+00 1.081168e+00 -6.633868e+00 193 188 190
-1.925098e+00 1.129697e+00 -6.575704e+00 178 173 180
-2.026737e+00 1.647935e+00 -6.555842e+00 231 235 238
-2.278711e+00 1.711119e+00 -6.603565e+00 159 164 170
-2.305162e+00 1.716862e+00 -6.604145e+00 234 238 239
1.427055e+00 3.815771e-01 -4.515847e+00 150 158 161
5.032844e-01 3.900505e-01 -4.701628e+00 123 129 137
7.728406e-01 3.953372e-01 -4.646334e+00 159 169 176
4.417622e-01 1.312888e+00 -6.041845e+00 163 163 153
-2.314483e+00 1.740919e+00 -6.614415e+00 191 195 205
-2.185699e+00 1.809736e+00 -6.582409e+00 236 236 242
-3.254762e+00 -9.319936e-01 -7.034795e+00 227 227 225
-7.488761e-01 7.383225e-01 -5.060529e+00 113 116 104
-2.309475e+00 1.593212e+00 -6.615844e+00 166 166 175
-5.884524e-01 1.154214e+00 -6.277463e+00 137 130 124
-2.022145e-01 3.731511e-01 -4.830417e+00 157 162 166
-2.713375e+00 7.806276e-01 -6.794913e+00 230 231 234
-2.591140e+00 -2.519247e+00 -7.010640e+00 103 100 97
-2.853461e+00 -2.547136e+00 -7.050370e+00 194 198 198
-3.328331e+00 -2.431146e+00 -7.202467e+00 217 218 218
-2.681252e+00 -2.512286e+00 -7.044455e+00 91 91 88
-2.696116e+00 -2.452264e+00 -7.017121e+00 194 193 198
-2.647090e+00 -2.293162e+00 -6.972853e+00 202 205 210
-2.711635e+00 -2.246145e+00 -6.988116e+00 124 121 116
-1.993296e+00 1.616373e+00 -6.536263e+00 171 171 179
-2.584418e+00 1.774026e+00 -6.668820e+00 233 240 243
-2.719219e+00 -2.400928e+00 -7.002735e+00 128 133 111
-2.835957e+00 -2.315400e+00 -7.036307e+00 197 201 202
-2.711103e+00 -2.296890e+00 -7.015792e+00 175 175 178
-2.804999e+00 -2.271937e+00 -7.025023e+00 132 131 136
9.427366e-01 -1.803402e-01 -5.581923e+00 143 140 134
-2.513169e+00 1.269585e-01 -6.773666e+00 177 173 177
-3.170741e+00 4.932128e-01 -6.919966e+00 187 178 181
-2.700892e+00 5.106781e-01 -6.794487e+00 194 186 194
1.082691e+00 3.981629e-01 -4.409892e+00 76 75 86
-2.587348e+00 1.622094e+00 -6.704917e+00 185 188 197
-2.587348e+00 1.622094e+00 -6.704917e+00 185 188 197
-2.633420e+00 1.726061e+00 -6.697341e+00 161 164 173
-1.174701e+00 -1.317769e+00 -5.113387e+00 74 84 90
-1.713280e+00 1.722613e-01 -6.623162e+00 207 204 206
-1.974339e+00 5.176140e-01 -6.649873e+00 186 181 185
-1.974339e+00 5.176140e-01 -6.649873e+00 186 181 185
1.534819e+00 3.929096e-01 -4.492935e+00 151 162 162
-2.803462e+00 5.961184e-01 -6.814567e+00 170 169 167
6.264632e-01 4.359245e-01 -4.673963e+00 171 181 190
1.171258e+00 8.188783e-01 -5.443224e+00 38 36 41
-7.173497e-01 8.564531e-01 -5.052585e+00 49 46 37
-3.129016e+00 1.164353e+00 -6.828926e+00 185 185 195
-7.225037e-01 1.023815e+00 -5.031870e+00 114 116 109
2.078727e+00 1.027127e+00 -4.987487e+00 67 57 53
1.074377e-02 -2.022974e-01 -6.272218e+00 165 163 159
-1.823629e+00 2.594414e-02 -6.654390e+00 197 187 187
-1.823629e+00 2.594414e-02 -6.654390e+00 197 187 187
1.714031e+00 3.488099e-01 -4.464870e+00 140 150 152
1.682639e+00 3.631135e-01 -4.465734e+00 145 153 155
8.094047e-01 3.995604e-01 -4.643459e+00 119 127 136
8.094047e-01 3.995604e-01 -4.643459e+00 119 127 136
5.572494e-01 4.355202e-01 -4.691124e+00 176 180 189
3.546550e-01 4.602127e-01 -4.750037e+00 175 189 198
1.395561e-01 5.076289e-01 -4.786095e+00 167 181 187
-1.816263e+00 8.906779e-01 -6.564827e+00 146 145 151
-1.816263e+00 8.906779e-01 -6.564827e+00 146 145 151
9.529031e-01 7.826984e-01 -5.504239e+00 130 133 116
-7.355222e-01 7.341073e-01 -5.074230e+00 56 55 52
1.646732e+00 8.897160e-01 -5.327380e+00 125 129 130
1.646732e+00 8.897160e-01 -5.327380e+00 125 129 130
1.604081e+00 9.192622e-01 -5.333738e+00 134 134 139
1.592891e+00 9.288455e-01 -5.352078e+00 178 178 178
-5.348637e-01 1.083825e+00 -6.290122e+00 134 128 126
-7.306733e-01 8.900037e-01 -5.039250e+00 108 114 101
-2.518353e-01 1.144504e+00 -6.208417e+00 177 173 165
3.220413e-02 1.269736e+00 -6.135556e+00 186 180 176
9.840328e-01 1.199027e+00 -5.457515e+00 103 107 92
9.840328e-01 1.199027e+00 -5.457515e+00 103 107 92
-5.406580e-01 1.557649e+00 -6.231640e+00 196 197 195
-1.645098e+00 1.633320e+00 -6.486035e+00 224 225 230
-1.645098e+00 1.633320e+00 -6.486035e+00 224 225 230
-2.122755e+00 1.714452e+00 -6.590648e+00 185 188 197
-3.183400e+00 1.844067e+00 -6.810200e+00 183 192 199
-2.210671e+00 1.783271e+00 -6.595596e+00 225 226 230
3.329576e-02 -2.048018e-01 -6.278665e+00 82 73 68
8.841755e-01 2.881877e-01 -4.643959e+00 95 104 107
5.693591e-01 3.000665e-01 -4.708798e+00 109 120 130
6.426654e-01 3.815155e-01 -4.672811e+00 161 168 174
1.320477e+00 3.764486e-01 -4.532914e+00 144 148 149
1.320477e+00 3.764486e-01 -4.532914e+00 144 148 149
-2.838646e+00 5.441249e-01 -6.827956e+00 178 177 182
1.410365e+00 3.880274e-01 -4.514773e+00 103 113 117
6.010647e-01 4.244311e-01 -4.677065e+00 175 181 189
1.480584e+00 4.363601e-01 -4.501386e+00 155 166 171
3.964411e-01 4.535036e-01 -4.725197e+00 184 192 204
1.504533e-01 4.616619e-01 -4.784281e+00 152 155 159
-7.356967e-01 8.173728e-01 -5.048176e+00 109 110 99
-5.813838e-01 1.077690e+00 -6.300134e+00 128 125 115
-1.337372e-01 1.146125e+00 -6.175670e+00 127 123 114
9.288319e-01 1.049830e+00 -5.489011e+00 113 111 100
-3.735749e-01 1.225427e+00 -6.230579e+00 198 194 186
1.066297e+00 1.104633e+00 -5.451040e+00 168 168 158
1.168866e+00 1.184142e+00 -5.411793e+00 124 130 119
4.425807e-01 1.310905e+00 -6.029114e+00 163 163 153
9.662314e-01 1.221476e+00 -5.456276e+00 142 146 130
1.111733e+00 1.223672e+00 -5.420945e+00 164 167 147
-2.511714e+00 1.738813e+00 -6.674328e+00 181 184 200
-2.511714e+00 1.738813e+00 -6.674328e+00 181 184 200
-1.863697e+00 1.776382e+00 -6.514795e+00 192 191 198
-2.980506e+00 1.872237e+00 -6.768920e+00 193 197 206
-2.980506e+00 1.872237e+00 -6.768920e+00 193 197 206
1.907589e+00 7.315619e-01 -4.966669e+00 36 32 23
-2.113762e+00 9.808561e-01 -6.630531e+00 228 229 231
-1.703923e+00 -5.098590e-02 -6.683430e+00 212 213 213
-1.729348e+00 2.414870e-02 -6.635727e+00 167 144 126
-1.691702e+00 1.940271e-01 -6.646899e+00 222 220 221
2.746164e+00 -1.135574e+00 -6.178586e+00 27 25 26
-1.814196e+00 4.539937e-01 -6.628182e+00 218 217 220
-2.521037e+00 7.859819e-01 -6.771193e+00 217 218 219
1.834127e+00 8.446623e-01 -4.398412e+00 69 59 57
-7.371714e-01 1.210008e+00 -4.822644e+00 119 127 134
1.094734e+00 1.792159e+00 -5.335752e+00 110 116 83
-2.253920e+00 2.250095e+00 -6.559424e+00 168 139 124
-1.762579e+00 -1.357069e+00 -6.770832e+00 235 233 234
-2.141420e+00 -1.138696e+00 -6.816760e+00 166 154 148
-1.728319e+00 -1.524352e-01 -6.639789e+00 241 241 243
-1.728319e+00 -1.524352e-01 -6.639789e+00 241 241 243
-1.449558e+00 1.207470e-01 -6.588765e+00 219 219 218
-1.521217e+00 1.216847e-01 -6.601317e+00 217 217 219
-1.582965e+00 3.932661e-01 -6.569431e+00 199 189 190
-1.674056e+00 4.005400e-01 -6.593415e+00 188 182 180
-1.674056e+00 4.005400e-01 -6.593415e+00 188 182 180
-1.850071e+00 4.165089e-01 -6.632077e+00 185 173 173
-1.850071e+00 4.165089e-01 -6.632077e+00 185 173 173
-1.693925e+00 4.436352e-01 -6.592836e+00 229 227 232
-2.059968e+00 4.551351e-01 -6.634341e+00 192 185 185
-2.197097e+00 4.804333e-01 -6.697291e+00 191 186 188
-1.727946e+00 4.875465e-01 -6.603152e+00 183 178 181
1.178509e+00 3.540276e-01 -4.394511e+00 176 189 190
1.178509e+00 3.540276e-01 -4.394511e+00 176 189 190
-2.331200e+00 9.012979e-01 -6.649272e+00 229 227 228
-2.287995e+00 1.790675e+00 -6.610714e+00 238 242 246
1.261850e+00 -1.033142e+00 -5.608053e+00 139 141 136
-2.588592e+00 -1.055634e+00 -6.914902e+00 237 239 235
-1.637238e+00 -9.699526e-01 -6.712821e+00 230 229 234
-1.488826e+00 2.180258e-01 -6.583868e+00 171 163 160
2.147338e+00 1.997717e-01 -4.380729e+00 79 87 100
-1.426612e+00 2.655242e-01 -6.560461e+00 213 214 209
2.120542e+00 2.053413e-01 -4.383178e+00 169 186 195
-2.127344e+00 2.886818e-01 -6.692740e+00 194 189 188
-1.440569e+00 3.308791e-01 -6.575247e+00 214 214 216
-1.505370e+00 3.344758e-01 -6.580603e+00 219 219 223
-1.505370e+00 3.344758e-01 -6.580603e+00 219 219 223
-1.459270e+00 3.741994e-01 -6.566242e+00 176 169 169
1.014196e+00 2.863144e-01 -4.645577e+00 72 86 86
-1.530310e+00 4.146879e-01 -6.569690e+00 223 222 228
-1.768548e+00 4.267947e-01 -6.632682e+00 185 176 174
-2.102628e+00 4.997179e-01 -6.663842e+00 231 231 231
-2.102628e+00 4.997179e-01 -6.663842e+00 231 231 231
-1.764409e+00 5.247442e-01 -6.618616e+00 222 223 225
-1.764409e+00 5.247442e-01 -6.618616e+00 222 223 225
-1.824945e+00 5.345363e-01 -6.609397e+00 218 219 221
-1.717183e+00 5.460498e-01 -6.576413e+00 169 165 167
1.085350e+00 3.978536e-01 -4.419099e+00 76 75 86
-3.098117e-02 4.662817e-01 -4.631550e+00 195 204 209
1.337662e+00 5.167119e-01 -4.482714e+00 165 183 189
-1.635561e+00 8.559255e-01 -6.528851e+00 212 212 212
-1.697805e+00 9.206698e-01 -6.520569e+00 218 217 213
4.742950e-02 1.457229e+00 -6.140926e+00 108 107 102
-2.174573e+00 2.053990e+00 -6.562182e+00 191 192 195
1.524465e+00 1.776948e+00 -5.182628e+00 131 134 119
-7.698727e-01 1.724700e+00 -4.838071e+00 69 71 67
-2.168692e+00 -1.446537e+00 -6.847799e+00 194 193 194
-2.168692e+00 -1.446537e+00 -6.847799e+00 194 193 194
-1.678288e+00 -1.351362e+00 -6.748607e+00 234 234 231
-1.734160e+00 -1.154478e+00 -6.745342e+00 166 160 160
-1.734160e+00 -1.154478e+00 -6.745342e+00 166 160 160
1.289590e+00 -9.392465e-01 -5.533234e+00 72 58 56
9.891902e-01 -9.338698e-01 -5.631114e+00 162 171 175
-1.643913e+00 -2.415167e-01 -6.632168e+00 233 232 233
-1.797892e+00 -1.948920e-03 -6.633535e+00 157 139 121
-1.776120e+00 2.448238e-02 -6.652154e+00 190 178 153
-1.657288e+00 6.984823e-02 -6.621970e+00 193 187 186
-1.405623e+00 1.383855e-01 -6.570235e+00 220 220 218
-1.440369e+00 1.596508e-01 -6.587754e+00 162 151 145
-2.448882e+00 2.390075e-01 -6.764883e+00 194 188 188
2.094063e+00 1.953883e-01 -4.429790e+00 83 94 101
9.599522e-01 2.761542e-01 -4.578233e+00 180 191 200
-2.305547e+00 3.845763e-01 -6.717455e+00 192 186 189
-1.520119e+00 3.777006e-01 -6.561015e+00 184 173 177
-1.520119e+00 3.777006e-01 -6.561015e+00 184 173 177
1.009083e+00 3.168888e-01 -4.574018e+00 186 196 204
-1.999738e+00 4.449784e-01 -6.661745e+00 181 173 174
-1.536699e+00 4.684838e-01 -6.564926e+00 173 171 173
-1.536699e+00 4.684838e-01 -6.564926e+00 173 171 173
-2.153439e+00 5.000667e-01 -6.671095e+00 238 240 242
-1.797398e+00 4.988399e-01 -6.605317e+00 186 180 183
-1.797398e+00 4.988399e-01 -6.605317e+00 186 180 183
-1.833341e+00 5.060902e-01 -6.593793e+00 178 177 175
-2.068320e+00 5.352611e-01 -6.660408e+00 186 184 187
-2.214487e+00 5.451563e-01 -6.681090e+00 190 188 191
-2.214487e+00 5.451563e-01 -6.681090e+00 190 188 191
-1.656139e+00 5.726417e-01 -6.577832e+00 226 227 229
1.008337e-03 4.519758e-01 -4.650034e+00 154 162 173
-1.695947e+00 6.325351e-01 -6.580602e+00 221 219 222
-1.860518e+00 6.461994e-01 -6.613545e+00 229 228 231
-2.025830e+00 6.642287e-01 -6.630565e+00 240 240 240
-8.209568e-01 7.826476e-01 -4.881466e+00 82 95 110
-1.445819e+00 1.164362e+00 -6.478672e+00 223 223 225
6.071219e-01 9.437689e-01 -4.540236e+00 182 197 198
-2.078670e+00 1.474706e+00 -6.556625e+00 184 183 188
2.324542e-02 1.477844e+00 -6.141309e+00 162 160 156
-1.596674e+00 1.638875e+00 -6.473995e+00 224 225 232
-1.537086e+00 1.639500e+00 -6.445281e+00 225 228 230
-4.425509e-01 1.622960e+00 -6.262244e+00 202 202 198
-1.307171e+00 1.744483e+00 -6.426772e+00 175 178 187
-1.307171e+00 1.744483e+00 -6.426772e+00 175 178 187
-1.958954e+00 1.776441e+00 -6.507197e+00 189 191 197
-1.958954e+00 1.776441e+00 -6.507197e+00 189 191 197
-3.981140e-01 1.709110e+00 -6.222694e+00 144 143 138
-1.400938e+00 1.792123e+00 -6.417077e+00 234 235 240
1.158262e+00 1.532414e+00 -5.344496e+00 169 170 156
1.158262e+00 1.532414e+00 -5.344496e+00 169 170 156
5.515255e-01 1.821316e+00 -5.981614e+00 151 155 141
-3.019237e-01 1.903008e+00 -6.178448e+00 153 146 151
-4.076002e-01 1.943355e+00 -6.201148e+00 211 212 214
-4.073543e-01 1.948612e+00 -6.215557e+00 211 212 214
-3.909583e-01 1.962910e+00 -6.191272e+00 153 146 153
-2.357664e-01 1.977139e+00 -6.178871e+00 135 127 131
-7.761154e-01 1.641927e+00 -4.908658e+00 185 199 211
-2.047698e+00 2.286908e+00 -6.496629e+00 218 217 216
-2.110591e+00 -2.285964e+00 -6.919937e+00 176 175 182
-2.135207e+00 -2.088026e+00 -6.908439e+00 177 176 181
-2.533318e+00 -1.424205e+00 -6.931078e+00 195 194 200
7.814204e-01 -1.126182e+00 -6.226706e+00 77 79 68
-1.859389e+00 -1.180443e+00 -6.760030e+00 176 169 169
-2.016466e+00 -1.177832e+00 -6.787518e+00 178 173 176
-1.564607e+00 -1.139212e+00 -6.694601e+00 181 176 174
-1.999091e+00 -1.158429e+00 -6.793428e+00 240 239 241
-2.164428e+00 -1.108496e+00 -6.814789e+00 167 156 136
-2.337916e+00 -9.747263e-01 -6.824902e+00 168 165 172
1.122217e+00 -3.783321e-01 -4.256570e+00 137 144 137
-1.674777e+00 -2.884998e-01 -6.662870e+00 238 238 239
-1.733719e+00 -2.745400e-01 -6.671998e+00 235 235 235
-2.218754e+00 -2.317202e-01 -6.745763e+00 239 238 243
-2.381425e+00 -2.144755e-01 -6.790442e+00 238 241 241
-1.681499e+00 -1.576718e-01 -6.646035e+00 234 234 234
-1.848090e+00 1.180544e-02 -6.673338e+00 154 136 125
-1.770106e+00 1.075705e-01 -6.638848e+00 107 95 77
-1.512140e+00 2.155611e-01 -6.572932e+00 167 159 157
-1.472518e+00 2.501277e-01 -6.568640e+00 220 217 216
2.140349e+00 2.285390e-01 -4.421209e+00 88 102 118
-1.549205e+00 3.105384e-01 -6.582419e+00 189 181 182
-1.772253e+00 3.392010e-01 -6.630328e+00 181 172 175
1.027014e+00 3.036292e-01 -4.622300e+00 85 92 101
-1.756103e+00 4.954157e-01 -6.605934e+00 182 178 177
2.709554e-01 4.296428e-01 -4.769714e+00 169 177 186
1.056351e+00 4.049172e-01 -4.415041e+00 149 162 168
4.460888e-01 4.700367e-01 -4.729860e+00 182 192 201
-1.742143e+00 6.372965e-01 -6.599144e+00 231 232 229
-1.962017e+00 6.997595e-01 -6.626550e+00 230 232 231
1.364591e+00 5.034299e-01 -4.577136e+00 82 94 101
-2.151776e+00 7.771621e-01 -6.634156e+00 225 224 226
-2.233452e+00 7.864522e-01 -6.672724e+00 230 228 231
-7.206004e-01 7.976258e-01 -5.028304e+00 57 57 46
-2.028929e+00 1.056291e+00 -6.584830e+00 229 229 230
-2.028929e+00 1.056291e+00 -6.584830e+00 229 229 230
-1.926188e+00 1.130837e+00 -6.579705e+00 178 173 180
-1.448606e+00 1.188776e+00 -6.471282e+00 169 168 173
-1.657848e+00 1.268011e+00 -6.513273e+00 231 225 223
-6.033580e-02 1.285844e+00 -6.186434e+00 175 170 166
-6.033580e-02 1.285844e+00 -6.186434e+00 175 170 166
-1.699061e+00 1.402010e+00 -6.508478e+00 233 230 233
-2.222640e+00 1.454420e+00 -6.600747e+00 232 232 232
-2.312318e+00 1.458645e+00 -6.622389e+00 238 238 240
-2.071839e+00 1.604198e+00 -6.557957e+00 178 178 187
-1.659978e+00 1.605198e+00 -6.469405e+00 181 180 194
-1.938286e+00 1.647411e+00 -6.537463e+00 235 237 242
4.606638e-02 1.554005e+00 -6.133864e+00 180 179 176
3.162477e-01 1.554160e+00 -6.079934e+00 93 90 80
3.162477e-01 1.554160e+00 -6.079934e+00 93 90 80
-1.537040e+00 1.706022e+00 -6.450970e+00 156 155 166
-1.537040e+00 1.706022e+00 -6.450970e+00 156 155 166
-3.049372e-01 1.714558e+00 -6.201853e+00 150 150 151
-3.868905e-01 1.733710e+00 -6.237483e+00 205 205 202
-1.574982e-01 1.842833e+00 -6.157315e+00 202 203 197
-2.767824e-01 1.906338e+00 -6.148581e+00 211 211 211
-2.767824e-01 1.906338e+00 -6.148581e+00 211 211 211
-3.462159e-01 1.935227e+00 -6.194682e+00 217 219 218
-1.990646e+00 2.206261e+00 -6.491282e+00 199 185 176
-2.037532e+00 2.327498e+00 -6.447765e+00 161 157 162
-2.423950e+00 -2.079100e+00 -6.956129e+00 167 166 172
-2.128115e+00 -1.414718e+00 -6.847327e+00 238 238 233
-1.477209e+00 -1.061109e+00 -6.664252e+00 174 173 179
-2.439109e+00 -1.094231e+00 -6.887731e+00 194 190 191
-2.599748e+00 -2.171490e-01 -6.842981e+00 243 243 243
-2.400611e+00 -2.058075e-01 -6.774191e+00 176 175 181
-1.642352e+00 4.932543e-02 -6.635621e+00 159 145 144
-1.376102e+00 2.218106e-01 -6.568456e+00 224 220 219
-2.126569e+00 3.166928e-01 -6.686855e+00 233 233 233
-1.499419e+00 4.580664e-01 -6.537506e+00 180 175 179
-2.356532e+00 7.688507e-01 -6.695111e+00 241 243 242
-1.698580e+00 7.659316e-01 -6.581891e+00 205 206 201
-2.111175e+00 1.077699e+00 -6.616635e+00 187 186 193
-5.285313e-01 1.041278e+00 -6.298934e+00 143 140 137
-1.380034e+00 1.179026e+00 -6.467787e+00 209 209 208
-2.174167e+00 1.457954e+00 -6.589423e+00 231 230 234
-1.878548e+00 1.460866e+00 -6.535234e+00 230 230 228
-2.195862e+00 1.532200e+00 -6.585344e+00 238 239 245
-1.254864e+00 1.530610e+00 -6.414824e+00 225 226 232
-2.578529e+00 1.634954e+00 -6.653571e+00 226 231 235
-1.603957e+00 1.613761e+00 -6.458089e+00 154 157 164
6.643039e-02 1.545672e+00 -6.106243e+00 119 119 115
-1.239710e+00 1.720088e+00 -6.394251e+00 226 227 229
-6.728092e-01 1.370051e+00 -4.988089e+00 51 53 46
-2.065951e+00 1.820368e+00 -6.546608e+00 243 244 249
-1.705054e+00 1.817106e+00 -6.501374e+00 235 234 239
-1.408029e+00 1.823364e+00 -6.414803e+00 180 177 184
-2.308817e-01 1.909171e+00 -6.161323e+00 131 124 122
-3.833930e-01 1.914939e+00 -6.186997e+00 212 213 211
-4.307619e-01 1.932163e+00 -6.187403e+00 156 152 154
-2.077078e+00 2.049014e+00 -6.520682e+00 184 184 188
-2.547621e-01 1.953101e+00 -6.154791e+00 199 198 200
-2.260011e+00 2.269276e+00 -6.531063e+00 205 205 198
-1.939224e+00 2.275402e+00 -6.473708e+00 209 204 200
-1.775459e+00 2.263273e+00 -6.417159e+00 151 147 143
-2.111724e+00 2.302150e+00 -6.509433e+00 218 219 218
-1.580545e+00 2.308722e+00 -6.392363e+00 169 167 165
1.687234e+00 3.881003e-01 -4.460008e+00 143 154 156
1.671856e+00 8.619192e-01 -5.292404e+00 87 87 89
6.362899e-01 4.190219e-01 -4.674580e+00 107 112 126
6.362899e-01 4.190219e-01 -4.674580e+00 107 112 126
-2.141803e+00 6.104421e-01 -6.671591e+00 191 190 189
-1.585409e+00 8.811000e-01 -6.513476e+00 109 114 101
-1.585409e+00 8.811000e-01 -6.513476e+00 109 114 101
-7.855922e-01 8.923322e-01 -5.004474e+00 127 143 166
-1.715445e-02 -1.206939e+00 -6.374363e+00 168 167 174
-2.280452e+00 1.084494e+00 -6.652732e+00 188 188 187
-2.280452e+00 1.084494e+00 -6.652732e+00 188 188 187
-2.670567e+00 2.380973e+00 -6.666127e+00 157 137 121
-2.310099e+00 1.593120e+00 -6.615438e+00 166 166 175
-2.310099e+00 1.593120e+00 -6.615438e+00 166 166 175
4.932570e-01 -1.064497e+00 -4.701985e+00 134 121 92
-2.851626e-01 -2.236272e-01 -6.332305e+00 116 111 107
-3.772504e-01 -2.164051e-01 -6.345415e+00 115 105 102
-2.883538e-01 9.296192e-02 -6.311162e+00 121 113 109
-5.455757e-01 1.705308e+00 -6.238069e+00 152 153 154
-6.632112e-01 1.463840e+00 -4.984751e+00 52 54 44
-4.861299e-01 1.888869e+00 -6.216692e+00 144 143 141
-4.861299e-01 1.888869e+00 -6.216692e+00 144 143 141
3.947205e-01 1.837300e+00 -6.002917e+00 156 154 149
3.947205e-01 1.837300e+00 -6.002917e+00 156 154 149
4.604329e-01 1.850431e+00 -5.992249e+00 97 87 84
-4.643527e-01 1.959827e+00 -6.204321e+00 154 152 156
-3.162467e-01 1.743304e+00 -6.184499e+00 211 208 214
4.923150e-01 1.819508e+00 -5.991205e+00 164 163 157
-4.069824e-01 1.891831e+00 -6.201973e+00 202 202 202
-6.587854e-01 1.543955e+00 -4.977316e+00 57 59 52
-5.012354e-01 1.906014e+00 -6.213050e+00 139 137 142
-5.012354e-01 1.906014e+00 -6.213050e+00 139 137 142
-4.054044e+00 2.954253e-01 -7.089306e+00 193 182 176
6.759739e-01 9.359736e-01 -4.590481e+00 52 53 55
-3.866222e+00 5.128361e-01 -7.029280e+00 177 171 171
-5.903837e-01 1.148467e+00 -6.267425e+00 146 145 141
-3.777887e-01 1.144967e+00 -6.223875e+00 143 140 134
-3.183902e-01 1.216808e+00 -6.212444e+00 206 202 205
-6.822366e-01 1.277549e+00 -5.013783e+00 48 49 44
1.371306e+00 8.959165e-01 -5.375887e+00 99 96 84
1.371306e+00 8.959165e-01 -5.375887e+00 99 96 84
-4.813852e-01 1.228051e+00 -6.237511e+00 225 221 219
-3.762014e+00 1.875034e+00 -6.964142e+00 175 175 189
-6.500979e-01 1.478940e+00 -6.260563e+00 163 162 159
-6.500979e-01 1.478940e+00 -6.260563e+00 163 162 159
1.275276e+00 1.268943e+00 -5.379443e+00 115 117 114
-4.702952e+00 -1.109345e+00 -7.342176e+00 189 188 187
-6.629241e-01 -8.217276e-02 -6.409539e+00 161 160 156
1.403027e+00 3.970235e-01 -4.518065e+00 146 158 164
-8.540304e-01 7.944977e-01 -4.925362e+00 242 248 244
-3.540926e+00 1.721080e+00 -6.905298e+00 160 171 179
-5.980845e-01 1.486304e+00 -6.248500e+00 149 148 148
-6.537734e-02 1.474560e+00 -6.143725e+00 212 214 208
-7.851528e-01 1.458774e+00 -4.965736e+00 196 217 222
2.767231e-01 -9.806216e-01 -6.230549e+00 115 118 109
-2.490698e+00 -8.681092e-01 -6.852060e+00 218 213 213
9.991176e-04 -3.151896e-01 -6.276329e+00 151 149 153
9.991176e-04 -3.151896e-01 -6.276329e+00 151 149 153
-6.298908e-01 -1.294407e-01 -6.402840e+00 176 174 174
1.425572e+00 2.628643e-01 -4.534359e+00 92 101 100
5.465724e-01 4.890609e-01 -4.706175e+00 195 205 217
8.606142e-01 6.421062e-01 -4.393460e+00 176 186 189
-4.473465e-01 1.076355e+00 -6.248694e+00 150 150 146
-4.786435e-01 1.098752e+00 -6.244144e+00 166 163 167
-4.779765e-01 1.206274e+00 -6.237451e+00 164 161 153
-1.925471e-01 1.223889e+00 -6.177690e+00 215 212 209
4.847293e-01 1.201621e+00 -6.042279e+00 160 158 158
-2.107432e-01 1.394416e+00 -6.172004e+00 136 133 136
-3.571921e-01 1.420870e+00 -6.209392e+00 151 148 144
-6.728618e-01 1.387069e+00 -4.991454e+00 41 44 35
4.237126e-02 5.972179e-02 1.475406e-01 0 255 0
4.206954e-02 5.923995e-02 9.754383e-02 255 255 0
8.954858e-01 7.446757e-01 -7.701259e-02 255 0 0
8.856779e-01 7.341116e-01 -1.248896e-01 255 255 0
-6.793206e-01 -2.252595e-01 8.429352e-01 0 255 0
-6.687768e-01 -2.222915e-01 7.941498e-01 255 255 0
1.332709e+00 -3.531303e-01 -1.188455e+00 255 0 0
1.312935e+00 -3.479378e-01 -1.234084e+00 255 255 0
