ply
format ascii 1.0
element vertex 137
property float x
property float y
property float z
property uchar diffuse_red
property uchar diffuse_green
property uchar diffuse_blue
end_header
-2.519865e+00 -1.132654e+00 -7.093417e+00 196 192 195
-2.391705e+00 -1.189263e+00 -7.075253e+00 176 170 169
-2.391705e+00 -1.189263e+00 -7.075253e+00 176 170 169
-2.523078e+00 4.132361e-01 -7.004731e+00 195 186 184
-2.045207e+00 1.671362e+00 -6.734153e+00 171 171 179
-1.832377e+00 1.698878e-01 -6.838732e+00 160 141 122
-2.005421e+00 4.543150e-01 -6.868723e+00 186 172 175
-2.183123e+00 5.667328e-01 -6.908420e+00 183 180 182
-2.632986e+00 6.071634e-01 -7.011633e+00 187 183 187
-1.744429e+00 8.881363e-01 -6.745867e+00 214 215 213
-1.810909e+00 8.868110e-01 -6.753364e+00 218 218 216
-1.778083e+00 9.165931e-01 -6.722621e+00 141 140 143
-1.973483e+00 1.675192e+00 -6.757199e+00 182 183 185
-2.287147e+00 -1.225381e+00 -7.057187e+00 181 173 174
-2.051828e+00 4.650390e-01 -6.870600e+00 181 173 174
-2.489242e+00 5.198895e-01 -6.985154e+00 191 187 187
1.027453e+00 3.688299e-01 -4.410549e+00 173 190 198
1.027453e+00 3.688299e-01 -4.410549e+00 173 190 198
-1.640644e+00 8.896895e-01 -6.695154e+00 204 204 201
-1.640644e+00 8.896895e-01 -6.695154e+00 204 204 201
-1.039197e-01 -2.530660e-01 -6.441301e+00 105 97 90
4.289058e-01 4.314698e-01 -4.733052e+00 171 185 188
7.103433e-01 4.516099e-01 -4.670464e+00 175 186 191
-2.262066e+00 9.385930e-01 -6.871392e+00 230 230 229
-7.533797e-01 8.375363e-01 -5.129502e+00 53 51 41
-2.248157e+00 1.122391e+00 -6.859028e+00 193 188 190
-2.248157e+00 1.122391e+00 -6.859028e+00 193 188 190
-1.973087e+00 1.168605e+00 -6.773103e+00 178 173 180
-2.084826e+00 1.706533e+00 -6.770058e+00 231 235 238
-2.340701e+00 1.772382e+00 -6.812858e+00 159 164 170
-2.374427e+00 1.782210e+00 -6.830599e+00 234 238 239
1.391861e+00 3.755530e-01 -4.504002e+00 150 158 161
4.729911e-01 3.870650e-01 -4.716258e+00 123 129 137
7.423960e-01 3.913404e-01 -4.657249e+00 159 169 176
4.487419e-01 1.336359e+00 -6.116879e+00 163 163 153
-2.389011e+00 1.809214e+00 -6.852029e+00 191 195 205
-2.252987e+00 1.877691e+00 -6.809018e+00 236 236 242
-3.380162e+00 -9.638003e-01 -7.352498e+00 227 227 225
-7.806867e-01 7.452925e-01 -5.133225e+00 113 116 104
-2.384145e+00 1.655422e+00 -6.857253e+00 166 166 175
-6.017545e-01 1.184113e+00 -6.421841e+00 137 130 124
-2.335034e-01 3.725240e-01 -4.878133e+00 157 162 166
-2.797721e+00 8.159260e-01 -7.047711e+00 230 231 234
-2.699727e+00 -2.630554e+00 -7.336219e+00 103 100 97
-2.983808e+00 -2.668580e+00 -7.403414e+00 194 198 198
-3.499971e+00 -2.561238e+00 -7.608615e+00 217 218 218
-2.796318e+00 -2.625898e+00 -7.379624e+00 91 91 88
-2.811003e+00 -2.561779e+00 -7.348592e+00 194 193 198
-2.754715e+00 -2.390378e+00 -7.289673e+00 202 205 210
-2.822864e+00 -2.342010e+00 -7.309101e+00 124 121 116
-2.045207e+00 1.671362e+00 -6.734153e+00 171 171 179
-2.662917e+00 1.843368e+00 -6.901719e+00 233 240 243
-2.834693e+00 -2.507360e+00 -7.332588e+00 128 133 111
-2.958307e+00 -2.419403e+00 -7.374418e+00 197 201 202
-2.823285e+00 -2.396283e+00 -7.340958e+00 175 175 178
-2.923825e+00 -2.372109e+00 -7.357587e+00 132 131 136
9.419186e-01 -1.862243e-01 -5.638140e+00 143 140 134
-2.588851e+00 1.380522e-01 -7.019458e+00 177 173 177
-3.283225e+00 5.211490e-01 -7.210349e+00 187 178 181
-2.785050e+00 5.361127e-01 -7.048382e+00 194 186 194
1.043888e+00 3.919027e-01 -4.405773e+00 76 75 86
-2.665630e+00 1.686259e+00 -6.941221e+00 185 188 197
-2.665630e+00 1.686259e+00 -6.941221e+00 185 188 197
-2.714339e+00 1.794671e+00 -6.934942e+00 161 164 173
-1.218479e+00 -1.337751e+00 -5.214948e+00 74 84 90
-1.756201e+00 1.823959e-01 -6.824296e+00 207 204 206
-2.026039e+00 5.392660e-01 -6.860780e+00 186 181 185
-2.026039e+00 5.392660e-01 -6.860780e+00 186 181 185
1.499122e+00 3.865781e-01 -4.478563e+00 151 162 162
-2.892991e+00 6.253255e-01 -7.074691e+00 170 169 167
5.955824e-01 4.325834e-01 -4.691467e+00 171 181 190
1.169687e+00 8.253468e-01 -5.478307e+00 38 36 41
-7.488494e-01 8.634065e-01 -5.120690e+00 49 46 37
-3.237529e+00 1.218155e+00 -7.104517e+00 185 185 195
-7.540132e-01 1.032141e+00 -5.097990e+00 114 116 109
2.074869e+00 1.031253e+00 -4.986810e+00 67 57 53
1.131459e-02 -2.065431e-01 -6.397816e+00 165 163 159
-1.870736e+00 3.195639e-02 -6.862795e+00 197 187 187
-1.870736e+00 3.195639e-02 -6.862795e+00 197 187 187
1.677650e+00 3.420728e-01 -4.445269e+00 140 150 152
1.646185e+00 3.564214e-01 -4.446808e+00 145 153 155
7.780276e-01 3.955045e-01 -4.654952e+00 119 127 136
7.780276e-01 3.955045e-01 -4.654952e+00 119 127 136
5.266479e-01 4.324591e-01 -4.711252e+00 176 180 189
3.248961e-01 4.581688e-01 -4.777936e+00 175 189 198
1.097078e-01 5.066228e-01 -4.821104e+00 167 181 187
-1.861727e+00 9.222154e-01 -6.761234e+00 146 145 151
-1.861727e+00 9.222154e-01 -6.761234e+00 146 145 151
9.505560e-01 7.898115e-01 -5.548270e+00 130 133 116
-7.672041e-01 7.401666e-01 -5.144743e+00 56 55 52
1.647672e+00 8.953614e-01 -5.346614e+00 125 129 130
1.647672e+00 8.953614e-01 -5.346614e+00 125 129 130
1.604692e+00 9.253597e-01 -5.353922e+00 134 134 139
1.594133e+00 9.353302e-01 -5.373523e+00 178 178 178
-5.448683e-01 1.111582e+00 -6.424042e+00 134 128 126
-7.624365e-01 8.971636e-01 -5.106929e+00 108 114 101
-2.564593e-01 1.171426e+00 -6.327997e+00 177 173 165
3.253436e-02 1.297338e+00 -6.241512e+00 186 180 176
9.813446e-01 1.211035e+00 -5.495976e+00 103 107 92
9.813446e-01 1.211035e+00 -5.495976e+00 103 107 92
-5.510848e-01 1.596003e+00 -6.359367e+00 196 197 195
-1.684626e+00 1.685247e+00 -6.667545e+00 224 225 230
-1.684626e+00 1.685247e+00 -6.667545e+00 224 225 230
-2.180029e+00 1.775119e+00 -6.797892e+00 185 188 197
-3.297879e+00 1.927787e+00 -7.085316e+00 183 192 199
-2.271816e+00 1.847377e+00 -6.806703e+00 225 226 230
3.453645e-02 -2.091484e-01 -6.404184e+00 82 73 68
8.528942e-01 2.836708e-01 -4.654422e+00 95 104 107
5.391359e-01 2.965840e-01 -4.730523e+00 109 120 130
6.117406e-01 3.779513e-01 -4.690356e+00 161 168 174
1.286022e+00 3.706647e-01 -4.526010e+00 144 148 149
1.286022e+00 3.706647e-01 -4.526010e+00 144 148 149
-2.930324e+00 5.716910e-01 -7.091467e+00 178 177 182
1.375330e+00 3.820017e-01 -4.504609e+00 103 113 117
5.701887e-01 4.211295e-01 -4.695531e+00 175 181 189
1.445126e+00 4.301879e-01 -4.488282e+00 155 166 171
3.662107e-01 4.511357e-01 -4.751038e+00 184 192 204
1.205441e-01 4.603763e-01 -4.819328e+00 152 155 159
-7.675551e-01 8.239578e-01 -5.116969e+00 109 110 99
-5.923927e-01 1.105616e+00 -6.436165e+00 128 125 115
-1.363511e-01 1.172165e+00 -6.289609e+00 127 123 114
9.261275e-01 1.060356e+00 -5.531148e+00 113 111 100
-3.804846e-01 1.255023e+00 -6.354804e+00 198 194 186
1.064235e+00 1.115124e+00 -5.487610e+00 168 168 158
1.167017e+00 1.195016e+00 -5.443771e+00 124 130 119
4.487419e-01 1.336359e+00 -6.116879e+00 163 163 153
9.633255e-01 1.233800e+00 -5.494999e+00 142 146 130
1.109559e+00 1.235294e+00 -5.454544e+00 164 167 147
-2.586535e+00 1.806061e+00 -6.904525e+00 181 184 200
-2.586535e+00 1.806061e+00 -6.904525e+00 181 184 200
-1.911079e+00 1.835299e+00 -6.706133e+00 192 191 198
-3.081859e+00 1.953150e+00 -7.029378e+00 193 197 206
-3.081859e+00 1.953150e+00 -7.029378e+00 193 197 206
-8.990689e-02 3.937172e-02 2.372711e-02 0 255 0
-8.917415e-02 3.905357e-02 -2.626651e-02 255 255 0
7.266799e-01 6.915830e-01 -1.857995e-01 255 0 0
7.180928e-01 6.813066e-01 -2.339727e-01 255 255 0
