ply
format ascii 1.0
element vertex 916
property float x
property float y
property float z
property uchar diffuse_red
property uchar diffuse_green
property uchar diffuse_blue
end_header
7.722252e-01 -3.420449e-01 -1.438819e+01 164 168 161
3.032292e+00 -2.734296e-01 -1.383435e+01 52 64 40
-1.483012e+00 -5.359351e-01 -1.264624e+01 53 51 44
-9.113928e-01 -6.133951e-01 -1.277579e+01 128 130 123
-8.441756e-01 -4.607409e-01 -1.331291e+01 54 45 45
3.770993e-01 -8.204455e-01 -1.358216e+01 107 110 117
-4.873081e-01 -5.082754e-01 -1.333054e+01 198 198 188
-4.397103e-01 -4.744486e-01 -1.349415e+01 113 115 113
-5.297597e-01 -6.467488e-01 -1.276594e+01 178 180 174
-5.552810e-01 -6.992833e-01 -1.252977e+01 187 187 190
-3.621966e-01 -6.872106e-01 -1.262164e+01 169 170 165
-1.570747e-01 -7.238853e-01 -1.251497e+01 191 190 185
-2.435705e-01 -4.688389e-01 -1.322647e+01 92 103 110
1.311693e-01 -6.649092e-01 -1.279787e+01 111 107 114
-1.472914e+00 -3.669865e-01 -1.311596e+01 132 138 141
-8.715397e-01 -5.303167e-01 -1.313953e+01 72 67 62
-6.190999e-01 -6.448001e-01 -1.273603e+01 138 135 126
-5.670104e-01 -5.947343e-01 -1.296001e+01 202 204 194
-6.120130e-01 -6.655946e-01 -1.265711e+01 203 204 198
-5.924151e-01 -6.556305e-01 -1.270949e+01 191 191 180
-6.003886e-01 -6.831792e-01 -1.258457e+01 182 181 173
-5.136638e-01 -6.030951e-01 -1.293642e+01 169 162 155
-5.070147e-01 -6.023975e-01 -1.294505e+01 180 180 176
-5.060950e-01 -6.505997e-01 -1.275786e+01 102 97 94
-4.982239e-01 -6.546876e-01 -1.272931e+01 212 214 210
-4.774886e-01 -6.449000e-01 -1.277987e+01 198 200 189
-4.050556e-01 -5.851719e-01 -1.303948e+01 202 203 190
-4.919277e-01 -7.170043e-01 -1.247788e+01 188 187 184
-4.919277e-01 -7.170043e-01 -1.247788e+01 188 187 184
-4.898017e-01 -7.156381e-01 -1.247219e+01 135 131 134
-4.898017e-01 -7.156381e-01 -1.247219e+01 135 131 134
-4.120934e-01 -6.991673e-01 -1.256077e+01 148 145 140
-3.804970e-01 -6.868432e-01 -1.263154e+01 198 199 193
-3.013855e-01 -6.760275e-01 -1.269876e+01 207 201 196
-2.785401e-01 -6.479942e-01 -1.281981e+01 121 120 118
-2.192901e-01 -7.190877e-01 -1.251524e+01 175 175 170
-1.768981e-01 -7.225544e-01 -1.251441e+01 209 210 206
-1.234479e-01 -6.761652e-01 -1.272532e+01 222 222 211
-1.445077e-01 -7.493007e-01 -1.239229e+01 185 186 181
3.489975e-03 -6.915373e-01 -1.268012e+01 98 101 104
3.489975e-03 -6.915373e-01 -1.268012e+01 98 101 104
-2.125536e-01 -4.496149e-01 -1.330586e+01 121 128 135
-6.245642e-02 -7.969855e-01 -1.219092e+01 169 170 171
1.098120e-01 -6.840489e-01 -1.273191e+01 194 195 190
7.016233e-02 -7.457938e-01 -1.244694e+01 216 215 210
3.831747e-01 -5.327733e-01 -1.339283e+01 184 188 184
3.228840e-01 -7.476424e-01 -1.247271e+01 166 166 162
-2.016178e-01 -2.996749e-01 -1.303335e+01 55 61 74
3.577521e+00 6.831754e-02 -1.305452e+01 86 95 78
-7.430629e-01 -3.674131e-01 -1.386498e+01 104 104 104
3.997509e-01 -6.835068e-01 -1.255284e+01 121 122 124
-8.207464e-01 -4.012102e-01 -1.349349e+01 188 189 185
1.689014e+00 -1.070196e+00 -1.142369e+01 73 95 46
-8.583851e-01 -4.704375e-01 -1.324714e+01 119 119 115
-8.712903e-02 -6.285486e-01 -1.291519e+01 105 108 109
2.548176e-01 -3.139350e-01 -1.410633e+01 134 140 134
-1.928785e-01 -3.019148e-01 -1.304588e+01 84 91 95
3.094702e+00 -2.676521e-01 -1.262122e+01 61 65 52
3.417704e+00 3.119189e-01 -1.376947e+01 85 90 106
-8.893283e-01 -5.209949e-01 -1.298101e+01 200 202 202
-3.742988e-01 -5.921544e-01 -1.301244e+01 123 123 116
5.095287e-01 -5.346104e-01 -1.325872e+01 41 41 46
-4.369695e-01 -6.103956e-01 -1.292435e+01 183 180 171
-3.178335e-01 -6.577891e-01 -1.276896e+01 168 173 166
3.657915e+00 8.683882e-02 -1.281728e+01 113 108 124
3.609206e+00 1.107549e-01 -1.289532e+01 92 94 110
-9.045630e-01 -5.968827e-01 -1.288191e+01 79 81 83
-9.128175e-01 -6.161294e-01 -1.280654e+01 45 45 43
-9.018497e-01 -5.675736e-01 -1.286141e+01 51 49 50
-5.636427e-01 -5.771608e-01 -1.304044e+01 175 180 174
-3.171101e-01 -5.237164e-01 -1.330040e+01 204 206 205
-3.158915e-01 -6.255793e-01 -1.289985e+01 189 189 179
-2.839896e-01 -6.059978e-01 -1.297660e+01 74 70 69
-3.791583e-02 -7.130789e-01 -1.258121e+01 141 138 135
3.349947e+00 2.460991e-01 -1.391958e+01 47 51 46
1.096547e+00 -5.589644e-01 -1.337585e+01 30 34 37
3.647327e+00 5.118766e-02 -1.278783e+01 216 228 237
-1.781362e-01 3.870008e-02 -1.303621e+01 148 150 148
-1.934759e-01 -1.938077e-01 -1.299457e+01 37 42 45
3.355721e+00 1.079160e-01 -1.370926e+01 245 245 247
-2.048401e-01 -4.363441e-01 -1.330628e+01 60 65 67
4.897426e-01 -3.972820e-01 -1.383664e+01 54 54 43
4.019397e-01 -6.735198e-01 -1.258800e+01 119 120 115
1.083861e+00 -5.849507e-01 -1.337861e+01 112 109 105
3.402091e+00 1.323832e-01 -1.374945e+01 44 45 46
3.403733e+00 1.554499e-01 -1.371412e+01 53 63 49
-1.542593e-01 6.237465e-02 -1.313651e+01 58 63 72
3.519210e+00 5.430592e-02 -1.305649e+01 72 76 86
3.519210e+00 5.430592e-02 -1.305649e+01 72 76 86
-1.675180e-01 -4.035836e-02 -1.299639e+01 239 241 241
-8.964321e-01 -5.377422e-01 -1.293555e+01 83 79 76
3.637737e+00 -4.836251e-02 -1.273899e+01 235 239 243
3.634717e+00 -1.025012e-02 -1.283126e+01 47 49 51
3.630340e+00 3.035177e-02 -1.299232e+01 206 210 211
3.666596e+00 4.237718e-03 -1.277675e+01 223 232 238
3.699258e+00 4.277545e-02 -1.283160e+01 67 71 71
-1.224996e-01 -2.284421e-02 -1.296313e+01 157 157 161
3.379347e+00 3.018886e-01 -1.391284e+01 192 196 198
3.442826e+00 2.999103e-01 -1.385224e+01 222 228 228
3.634343e+00 1.700128e-01 -1.287194e+01 66 70 71
3.390900e+00 3.504108e-01 -1.376695e+01 61 73 80
3.396605e+00 3.509217e-01 -1.376700e+01 61 73 80
-1.382185e+00 -2.670250e-01 -1.353615e+01 98 106 95
-6.079327e-01 -2.920298e-01 -1.397636e+01 186 188 182
2.056865e+00 -1.061532e+00 -1.156772e+01 211 208 199
3.659077e+00 -1.033650e-01 -1.286895e+01 254 255 255
3.718465e+00 -3.262332e-02 -1.297057e+01 225 226 226
3.270081e+00 -1.195266e-01 -1.236220e+01 60 64 83
3.627600e+00 3.332193e-02 -1.295919e+01 69 70 72
3.671186e+00 4.011092e-02 -1.291009e+01 48 51 47
3.633871e+00 6.203611e-02 -1.282345e+01 212 226 239
3.392449e+00 2.328007e-01 -1.385746e+01 214 217 213
3.226564e+00 2.122474e-02 -1.240434e+01 85 91 92
3.395266e+00 2.879377e-01 -1.377380e+01 216 221 229
3.638877e+00 1.940760e-01 -1.283817e+01 70 73 89
-2.292968e-01 -5.570400e-01 -1.310024e+01 115 112 97
3.705294e+00 -2.265288e-01 -1.308241e+01 61 64 66
3.613187e+00 -6.846090e-02 -1.306428e+01 229 220 193
3.657100e+00 -7.982922e-02 -1.278343e+01 69 74 92
3.616326e+00 -1.752628e-02 -1.302303e+01 212 214 207
3.674803e+00 -3.503038e-02 -1.280998e+01 48 54 72
3.606775e+00 -3.294768e-02 -1.274571e+01 234 238 247
3.635869e+00 4.154558e-02 -1.293985e+01 213 221 216
3.615034e+00 6.488678e-02 -1.306192e+01 52 58 73
3.650089e+00 7.934001e-02 -1.298419e+01 205 220 220
3.658137e+00 9.773318e-02 -1.292095e+01 213 222 223
3.423077e+00 3.318990e-01 -1.385355e+01 106 119 128
-7.828956e-01 -3.499025e-01 -1.371852e+01 192 196 192
-2.186148e-01 -7.795537e-01 -1.225753e+01 117 114 106
-2.029869e-01 -3.160870e-01 -1.304124e+01 101 109 112
3.645631e+00 -6.768691e-02 -1.276193e+01 68 75 107
3.631790e+00 -6.866425e-02 -1.274432e+01 231 235 244
3.331034e+00 9.544210e-02 -1.368108e+01 80 90 78
3.587575e+00 1.913187e-03 -1.302062e+01 54 57 68
3.636265e+00 -1.456514e-02 -1.288739e+01 43 43 57
3.667765e+00 -4.620056e-03 -1.279948e+01 86 86 102
3.593595e+00 4.620260e-02 -1.296300e+01 49 55 68
3.654082e+00 7.063987e-02 -1.294498e+01 211 224 232
3.629036e+00 8.606811e-02 -1.288273e+01 207 216 215
3.430732e+00 2.803824e-01 -1.385338e+01 88 100 108
3.416416e+00 2.695743e-01 -1.371812e+01 167 172 178
3.639274e+00 1.415584e-01 -1.288112e+01 87 92 109
3.405356e+00 3.295108e-01 -1.377310e+01 194 203 210
-1.381634e+00 -2.833009e-01 -1.353985e+01 79 82 77
-1.383736e+00 -2.731819e-01 -1.353242e+01 111 109 105
-1.383736e+00 -2.731819e-01 -1.353242e+01 111 109 105
-8.231483e-01 -4.541244e-01 -1.346262e+01 112 109 94
-8.622661e-01 -5.145152e-01 -1.321043e+01 47 32 33
-8.637216e-01 -5.135345e-01 -1.321119e+01 47 32 33
3.292423e+00 -1.815197e-01 -1.242594e+01 55 56 40
3.317228e+00 -1.648668e-01 -1.234522e+01 79 81 81
3.636758e+00 -5.619055e-02 -1.276161e+01 222 228 224
3.668238e+00 -1.763215e-02 -1.280267e+01 208 218 210
3.376348e+00 1.530179e-01 -1.368762e+01 101 104 128
3.633486e+00 4.183456e-02 -1.297315e+01 157 166 162
3.633486e+00 4.183456e-02 -1.297315e+01 157 166 162
3.668433e+00 6.444253e-03 -1.274782e+01 65 71 81
3.617308e+00 3.026177e-02 -1.288168e+01 48 52 54
3.637612e+00 6.104336e-02 -1.292454e+01 210 224 223
3.672845e+00 8.352179e-02 -1.295250e+01 210 218 231
3.648385e+00 6.774115e-02 -1.284981e+01 42 49 55
3.342389e+00 2.344483e-01 -1.387265e+01 82 80 95
3.396179e+00 3.660812e-01 -1.376080e+01 160 167 172
-1.382602e+00 -2.713973e-01 -1.353688e+01 125 126 118
-7.923828e-01 -4.050262e-01 -1.367667e+01 132 132 129
-7.917091e-01 -3.921131e-01 -1.367725e+01 118 121 112
-8.306479e-01 -4.635169e-01 -1.340508e+01 69 68 60
-7.884561e-01 -3.831445e-01 -1.369288e+01 128 131 124
-7.952723e-01 -3.930150e-01 -1.365293e+01 116 114 102
-8.101341e-01 -4.193242e-01 -1.354320e+01 59 60 52
-8.099281e-01 -4.174174e-01 -1.354478e+01 124 127 119
-8.351222e-01 -4.655622e-01 -1.336901e+01 132 129 123
-8.351222e-01 -4.655622e-01 -1.336901e+01 132 129 123
-8.958737e-01 -5.548500e-01 -1.304513e+01 69 49 44
-8.425002e-01 -4.761555e-01 -1.330945e+01 63 61 49
-8.333300e-01 -4.569095e-01 -1.337748e+01 111 112 99
-8.372047e-01 -4.641911e-01 -1.334695e+01 120 117 108
-8.948526e-01 -5.821614e-01 -1.294063e+01 49 46 39
-8.424206e-01 -4.738446e-01 -1.330915e+01 65 64 55
-8.761618e-01 -5.422191e-01 -1.307083e+01 70 65 62
-8.565844e-01 -5.011651e-01 -1.321033e+01 86 84 73
-8.329179e-01 -4.224442e-01 -1.341738e+01 152 147 142
-7.114517e-02 -7.548239e-01 -1.238834e+01 114 110 104
2.770833e-01 -7.662040e-01 -1.237638e+01 158 152 137
3.997659e-01 -6.945311e-01 -1.255486e+01 120 122 115
-1.350089e+00 -1.189519e-01 -1.350454e+01 78 86 62
-1.914542e-01 -1.921909e-01 -1.301050e+01 102 114 119
3.335426e+00 9.233885e-02 -1.369897e+01 81 87 75
3.598355e+00 6.518258e-02 -1.304886e+01 214 228 225
3.598355e+00 6.518258e-02 -1.304886e+01 214 228 225
3.374096e+00 2.257490e-01 -1.384545e+01 64 83 79
4.516967e-02 -6.715438e-01 -1.338493e+01 170 173 151
-9.730427e-01 -5.856721e-01 -1.293737e+01 182 182 174
-9.518701e-01 -5.929016e-01 -1.286743e+01 163 160 143
2.874752e+00 8.009173e-01 -1.580277e+01 227 232 236
2.874752e+00 8.009173e-01 -1.580277e+01 227 232 236
2.923027e+00 9.214564e-01 -1.594696e+01 42 48 41
2.417165e+00 1.258892e+00 -1.684325e+01 225 231 231
-1.523848e-01 8.664255e-02 -1.310935e+01 87 91 93
-1.024625e+00 -5.885744e-01 -1.291110e+01 132 135 117
-1.034229e+00 -5.864455e-01 -1.290158e+01 132 135 117
-1.923739e-01 -2.688331e-01 -1.300749e+01 38 42 42
-1.855774e-01 -1.935237e-01 -1.299699e+01 55 57 54
3.271024e+00 -6.468815e-02 -1.259501e+01 221 225 231
-1.233511e-01 -8.081369e-03 -1.300342e+01 163 165 158
-9.348643e-01 -6.267263e-01 -1.276811e+01 150 148 132
-9.105661e-01 -6.087584e-01 -1.283203e+01 90 79 69
-7.982054e-01 -6.868575e-01 -1.239208e+01 35 36 31
-9.083808e-01 -6.038939e-01 -1.284573e+01 80 80 68
-8.468489e-01 -6.492338e-01 -1.246017e+01 169 165 157
-7.643928e-01 -6.810500e-01 -1.234362e+01 177 175 171
-7.540200e-01 -6.772977e-01 -1.233841e+01 134 129 125
-7.594658e-01 -6.759787e-01 -1.233750e+01 134 129 125
-7.617886e-01 -6.674540e-01 -1.239505e+01 178 178 169
-7.191189e-01 -6.819659e-01 -1.231692e+01 180 180 175
-7.169342e-01 -6.827135e-01 -1.231727e+01 180 180 175
-8.898054e-01 -5.588160e-01 -1.280458e+01 203 201 190
3.275682e-01 -7.227057e-01 -1.259218e+01 148 143 132
-2.131189e-01 3.891511e-02 -1.304861e+01 174 171 164
-9.805017e-01 -5.962462e-01 -1.288418e+01 181 185 171
-8.159647e-01 -6.792392e-01 -1.241790e+01 31 33 30
-7.967288e-01 -6.880319e-01 -1.238089e+01 35 38 28
-8.941820e-01 -6.297149e-01 -1.261011e+01 29 30 25
-7.561359e-01 -6.855919e-01 -1.232256e+01 165 168 161
-9.066030e-01 -5.954165e-01 -1.267154e+01 192 188 177
-7.373288e-01 -6.803239e-01 -1.234351e+01 111 110 106
-9.102007e-01 -5.563441e-01 -1.285477e+01 92 89 75
2.808681e-01 -3.102453e-01 -1.409277e+01 135 135 125
2.901243e+00 1.021306e+00 -1.619747e+01 55 61 55
2.575900e+00 1.338309e+00 -1.691630e+01 226 231 231
-8.506866e-01 -6.609350e-01 -1.248402e+01 38 41 31
-8.785681e-01 -6.423100e-01 -1.255739e+01 33 36 29
-9.135810e-01 -6.072287e-01 -1.266655e+01 120 118 105
-7.659804e-01 -6.830965e-01 -1.233650e+01 183 182 177
-9.050003e-01 -5.813857e-01 -1.284669e+01 86 89 82
-9.170241e-01 -5.916225e-01 -1.270705e+01 104 102 87
-9.031981e-01 -5.428116e-01 -1.291024e+01 93 89 82
-8.979368e-01 -5.363235e-01 -1.293908e+01 87 85 73
-8.973636e-01 -5.333841e-01 -1.295085e+01 93 83 75
3.645788e-01 -7.216625e-01 -1.246345e+01 42 43 38
2.910072e+00 9.842433e-01 -1.651811e+01 51 58 46
2.490175e+00 1.203653e+00 -1.692494e+01 216 221 221
3.208076e+00 -1.085067e-01 -1.257866e+01 41 41 43
2.932247e+00 1.085282e+00 -1.639214e+01 223 232 231
3.640987e+00 8.564773e-02 -1.293607e+01 215 226 232
-8.220174e-01 -7.193748e-01 -1.242571e+01 45 35 30
-9.022591e-01 -6.718664e-01 -1.260130e+01 130 130 118
-8.888014e-01 -6.703973e-01 -1.257918e+01 68 44 34
-9.150585e-01 -6.209346e-01 -1.279154e+01 81 84 70
-9.739608e-01 -5.960568e-01 -1.287663e+01 141 140 123
-8.984683e-01 -6.256219e-01 -1.259431e+01 117 120 103
-7.519158e-01 -6.990712e-01 -1.231353e+01 99 95 93
-9.091877e-01 -6.042298e-01 -1.271249e+01 30 29 24
-9.093386e-01 -5.928408e-01 -1.276125e+01 43 44 39
-9.096399e-01 -5.855592e-01 -1.279024e+01 51 53 44
-2.361560e-01 -7.381868e-01 -1.242705e+01 168 170 149
-1.870871e-01 -7.365221e-01 -1.244623e+01 176 168 147
3.216599e-01 -6.859235e-01 -1.274684e+01 168 159 144
2.571850e+00 6.564718e-01 -1.596703e+01 64 77 52
3.407640e+00 1.552272e-01 -1.370934e+01 44 51 40
2.712840e+00 7.290997e-01 -1.558403e+01 224 230 230
3.621161e+00 2.561026e-03 -1.308965e+01 59 60 77
3.416376e+00 2.368033e-01 -1.383924e+01 57 61 48
3.412861e+00 2.694156e-01 -1.379725e+01 36 40 38
3.584773e+00 5.589335e-02 -1.304752e+01 64 69 78
3.584773e+00 5.589335e-02 -1.304752e+01 64 69 78
3.624167e+00 1.193537e-01 -1.287705e+01 211 220 223
3.271580e+00 3.642947e-02 -1.254993e+01 198 200 215
-7.596183e-01 -7.474332e-01 -1.234156e+01 101 102 85
-7.682669e-01 -7.430995e-01 -1.234663e+01 72 50 41
-8.586581e-01 -6.553650e-01 -1.247623e+01 118 114 100
-9.081266e-01 -6.136316e-01 -1.269630e+01 56 59 52
-7.942186e-01 -6.753054e-01 -1.237082e+01 155 152 141
-7.946333e-01 -6.712181e-01 -1.237726e+01 178 179 164
-7.764269e-01 -6.678163e-01 -1.238507e+01 188 190 177
-9.100897e-01 -5.665041e-01 -1.285546e+01 55 57 45
-9.059293e-01 -5.670797e-01 -1.285908e+01 55 57 45
-8.956222e-01 -5.360350e-01 -1.296605e+01 111 115 100
-8.821094e-01 -5.139342e-01 -1.306235e+01 125 123 111
-8.582110e-01 -4.972882e-01 -1.317320e+01 45 41 34
-8.777945e-01 -5.056676e-01 -1.307640e+01 104 104 98
-8.294265e-01 -4.417726e-01 -1.340297e+01 42 40 33
-1.086717e-01 -7.252296e-01 -1.251842e+01 160 157 142
-8.408347e-01 -4.336107e-01 -1.337696e+01 90 85 82
1.382346e-01 -7.437089e-01 -1.247714e+01 139 134 120
-2.304583e-01 -5.098319e-01 -1.304148e+01 84 92 95
4.339421e-01 -6.781322e-01 -1.265394e+01 38 40 35
4.144777e-01 -3.868759e-01 -1.398450e+01 93 91 81
2.116819e+00 5.843017e-01 -1.653324e+01 49 58 39
2.667962e+00 6.376780e-01 -1.544653e+01 35 39 39
2.739999e+00 7.220339e-01 -1.557592e+01 60 65 55
3.025475e+00 1.042622e+00 -1.647460e+01 236 243 236
3.002207e+00 1.070966e+00 -1.648592e+01 52 56 56
3.264527e+00 7.673840e-02 -1.253943e+01 213 218 232
-7.729090e-02 5.055257e-02 -1.297335e+01 241 246 243
-9.069552e-01 -6.007274e-01 -1.286719e+01 58 49 43
-9.087598e-01 -5.922227e-01 -1.280902e+01 61 62 57
-9.082384e-01 -6.102757e-01 -1.262994e+01 91 91 78
-7.605164e-01 -6.846261e-01 -1.232891e+01 165 166 160
-7.416134e-01 -6.903580e-01 -1.230911e+01 158 154 143
-5.424426e-01 -6.160710e-01 -1.288048e+01 211 208 187
-1.865489e-01 -7.526261e-01 -1.239329e+01 127 120 104
-1.865489e-01 -7.526261e-01 -1.239329e+01 127 120 104
-4.412340e-01 -6.064759e-01 -1.293694e+01 96 89 82
-7.247805e-02 -7.341966e-01 -1.247676e+01 96 95 96
-2.851844e-02 -7.248616e-01 -1.252621e+01 119 115 107
3.408972e-01 -7.572086e-01 -1.243518e+01 81 77 74
1.088099e+00 -5.350154e-01 -1.339274e+01 42 44 39
4.253355e+01 9.902267e-01 -2.130102e+01 46 48 45
2.949904e+00 9.598114e-01 -1.656398e+01 32 39 39
3.375775e+00 1.293252e-01 -1.364017e+01 101 108 121
2.898766e+00 1.013296e+00 -1.651385e+01 204 213 211
2.772577e+00 1.138655e+00 -1.675970e+01 203 207 205
3.454143e+00 2.649695e-01 -1.388277e+01 48 52 53
3.360493e+00 3.027754e-01 -1.394371e+01 77 80 90
2.946368e+00 1.066226e+00 -1.641110e+01 225 232 232
3.449866e+00 3.087585e-01 -1.385016e+01 52 61 64
3.591919e+00 7.666858e-02 -1.299233e+01 204 214 216
3.208763e+00 8.421265e-03 -1.254865e+01 69 71 104
3.592676e+00 1.599835e-01 -1.288334e+01 63 71 107
-8.868723e-01 -6.775338e-01 -1.257932e+01 55 45 30
-8.345980e-01 -7.038715e-01 -1.245563e+01 117 118 103
-8.555567e-01 -6.913937e-01 -1.249713e+01 122 123 109
-8.377384e-01 -6.926156e-01 -1.246066e+01 73 75 67
-8.377384e-01 -6.926156e-01 -1.246066e+01 73 75 67
-8.960198e-01 -6.579631e-01 -1.261867e+01 132 129 124
-8.983913e-01 -6.548762e-01 -1.262824e+01 130 127 120
-9.001859e-01 -6.524237e-01 -1.263828e+01 131 133 122
-8.541482e-01 -6.786914e-01 -1.249217e+01 70 70 64
-8.310922e-01 -6.892159e-01 -1.244551e+01 121 124 110
-8.135489e-01 -6.976614e-01 -1.241688e+01 130 136 120
-8.833070e-01 -6.585402e-01 -1.257036e+01 132 134 120
-8.612465e-01 -6.705304e-01 -1.250848e+01 137 139 123
-8.452317e-01 -6.777259e-01 -1.247157e+01 118 122 104
-8.152863e-01 -6.913984e-01 -1.241844e+01 122 124 109
-8.968125e-01 -6.430883e-01 -1.262229e+01 133 133 122
-8.910886e-01 -6.467639e-01 -1.259482e+01 134 136 122
-9.084831e-01 -6.159537e-01 -1.271087e+01 127 126 116
-8.890073e-01 -6.337023e-01 -1.259042e+01 41 37 34
-9.887208e-01 -5.504588e-01 -1.304982e+01 180 180 167
-7.935117e-01 -6.807402e-01 -1.236989e+01 59 56 53
-7.935117e-01 -6.807402e-01 -1.236989e+01 59 56 53
-8.995529e-01 -6.206704e-01 -1.259682e+01 75 75 63
-8.374202e-01 -6.579211e-01 -1.243296e+01 164 159 148
-8.295189e-01 -6.615863e-01 -1.242021e+01 161 159 146
-8.796136e-01 -6.332110e-01 -1.252725e+01 164 161 154
-9.111986e-01 -5.644867e-01 -1.285069e+01 111 105 95
-8.836145e-01 -5.517372e-01 -1.284585e+01 205 202 193
8.243767e-03 -7.481155e-01 -1.242987e+01 173 172 155
-2.473151e-01 -5.695567e-01 -1.304559e+01 126 125 107
-2.510151e-01 -5.635313e-01 -1.306284e+01 119 118 97
-2.367548e-01 -5.550446e-01 -1.310271e+01 117 114 96
-8.408217e-02 -3.091165e-01 -1.421693e+01 89 92 78
1.561432e-01 -1.409792e-01 -1.477823e+01 33 46 91
3.050407e+00 -2.868790e-01 -1.395217e+01 11 10 10
-1.962412e-01 -2.671154e-01 -1.299391e+01 26 26 26
2.922062e+00 9.657794e-01 -1.656809e+01 200 210 201
2.913078e+00 1.006094e+00 -1.650020e+01 52 59 65
2.777382e+00 7.102655e-01 -1.552175e+01 61 66 61
2.777382e+00 7.102655e-01 -1.552175e+01 61 66 61
2.748122e+00 6.969917e-01 -1.546400e+01 63 65 64
2.772842e+00 7.304626e-01 -1.551707e+01 196 201 203
2.776486e+00 7.310105e-01 -1.551991e+01 196 201 203
2.857551e+00 9.227778e-01 -1.599892e+01 60 67 76
2.965861e+00 9.037424e-01 -1.590097e+01 221 227 240
3.421733e+00 3.068090e-01 -1.381346e+01 151 160 154
2.918730e+00 9.578831e-01 -1.588507e+01 231 236 230
3.421219e+00 2.626517e-01 -1.361813e+01 225 231 229
2.811302e+00 1.076043e+00 -1.608123e+01 117 122 127
-8.566288e-01 -7.016760e-01 -1.248881e+01 28 26 20
-8.775837e-01 -6.764038e-01 -1.255386e+01 118 118 110
-8.520064e-01 -6.897250e-01 -1.249045e+01 132 130 114
-8.752600e-01 -6.760095e-01 -1.254720e+01 134 132 122
-8.752600e-01 -6.760095e-01 -1.254720e+01 134 132 122
-8.107489e-01 -7.080278e-01 -1.241278e+01 123 125 107
-8.572307e-01 -6.822042e-01 -1.249976e+01 88 90 83
-8.970758e-01 -6.570872e-01 -1.262197e+01 127 128 119
-8.972198e-01 -6.563343e-01 -1.262548e+01 119 118 113
-8.341597e-01 -6.932053e-01 -1.245315e+01 129 132 118
-8.283794e-01 -6.954872e-01 -1.244417e+01 121 125 109
-8.081889e-01 -7.055679e-01 -1.240903e+01 126 127 115
-8.937326e-01 -6.576968e-01 -1.260784e+01 131 131 123
-8.101224e-01 -7.037629e-01 -1.241178e+01 119 125 107
-8.150294e-01 -7.010020e-01 -1.242066e+01 123 127 114
-8.082349e-01 -7.033245e-01 -1.241026e+01 71 72 68
-8.306205e-01 -6.917355e-01 -1.244617e+01 122 123 110
-8.554345e-01 -6.789163e-01 -1.249424e+01 123 124 111
-8.270969e-01 -6.922352e-01 -1.244031e+01 121 122 106
-9.053483e-01 -6.446047e-01 -1.266405e+01 142 140 128
-8.293531e-01 -6.904400e-01 -1.244416e+01 85 84 77
-8.419245e-01 -6.839378e-01 -1.246686e+01 128 130 117
-8.960443e-01 -6.500734e-01 -1.261682e+01 134 135 120
-8.960443e-01 -6.500734e-01 -1.261682e+01 134 135 120
-8.438168e-01 -6.810179e-01 -1.247066e+01 86 88 77
-8.438168e-01 -6.810179e-01 -1.247066e+01 86 88 77
-8.868223e-01 -6.562166e-01 -1.257975e+01 139 139 129
-7.975488e-01 -7.034597e-01 -1.239123e+01 123 125 112
-7.937955e-01 -7.046759e-01 -1.238695e+01 88 89 80
-8.871875e-01 -6.543634e-01 -1.258293e+01 137 138 123
-9.070080e-01 -6.390225e-01 -1.267724e+01 130 130 115
-8.959151e-01 -6.477796e-01 -1.261648e+01 134 135 121
-8.869220e-01 -6.533943e-01 -1.258094e+01 92 94 81
-8.302792e-01 -6.851760e-01 -1.244471e+01 127 128 115
-9.019819e-01 -6.418241e-01 -1.264598e+01 134 134 122
-7.535656e-01 -7.200672e-01 -1.233769e+01 106 108 97
-8.356641e-01 -6.819926e-01 -1.245332e+01 128 129 118
-8.356641e-01 -6.819926e-01 -1.245332e+01 128 129 118
-8.956947e-01 -6.452507e-01 -1.261585e+01 133 136 122
-8.797826e-01 -6.553655e-01 -1.255894e+01 135 134 123
-8.552011e-01 -6.690102e-01 -1.249352e+01 57 58 53
-9.031080e-01 -6.372315e-01 -1.265209e+01 134 136 123
-8.039001e-01 -6.941287e-01 -1.240067e+01 121 126 107
-9.064403e-01 -6.325923e-01 -1.267962e+01 124 126 112
-9.064403e-01 -6.325923e-01 -1.267962e+01 124 126 112
-9.134953e-01 -6.182701e-01 -1.280151e+01 40 30 28
-8.447971e-01 -6.723081e-01 -1.247196e+01 62 64 61
-8.447971e-01 -6.723081e-01 -1.247196e+01 62 64 61
-8.413734e-01 -6.736644e-01 -1.246447e+01 110 116 96
-8.911890e-01 -6.439871e-01 -1.259590e+01 51 51 49
-8.462529e-01 -6.708654e-01 -1.247318e+01 106 109 94
-8.984090e-01 -6.380369e-01 -1.262619e+01 82 84 74
-8.401213e-01 -6.732213e-01 -1.246100e+01 113 117 103
-8.976457e-01 -6.373384e-01 -1.262416e+01 131 133 122
-8.542723e-01 -6.648705e-01 -1.249063e+01 81 83 69
-9.037668e-01 -6.312272e-01 -1.265777e+01 131 133 118
-8.412293e-01 -6.709821e-01 -1.246373e+01 98 101 85
-7.693180e-01 -7.046065e-01 -1.235361e+01 103 109 95
-9.056673e-01 -6.256342e-01 -1.267061e+01 125 124 113
-9.101130e-01 -6.194995e-01 -1.271092e+01 132 133 124
-8.864455e-01 -6.397244e-01 -1.257941e+01 101 100 84
-8.877105e-01 -6.391119e-01 -1.258242e+01 106 108 93
-8.955730e-01 -6.315747e-01 -1.261610e+01 102 105 84
-9.080041e-01 -6.193432e-01 -1.269627e+01 47 48 42
-8.995071e-01 -6.281438e-01 -1.263268e+01 114 117 99
-8.975210e-01 -6.293534e-01 -1.262592e+01 94 98 79
-8.975210e-01 -6.293534e-01 -1.262592e+01 94 98 79
-8.964878e-01 -6.297581e-01 -1.262275e+01 83 88 66
-8.964878e-01 -6.297581e-01 -1.262275e+01 83 88 66
-9.066048e-01 -6.198404e-01 -1.268718e+01 100 100 90
-9.086179e-01 -6.168484e-01 -1.270008e+01 121 122 107
-9.069632e-01 -6.150893e-01 -1.269396e+01 109 111 98
-9.007175e-01 -5.910031e-01 -1.290508e+01 32 28 11
-8.275509e-01 -6.626351e-01 -1.241618e+01 159 155 147
-8.646910e-01 -6.422084e-01 -1.249385e+01 166 157 153
-9.109927e-01 -5.968138e-01 -1.275422e+01 51 52 37
-9.173773e-01 -5.958657e-01 -1.272458e+01 118 119 112
-8.833033e-01 -5.565912e-01 -1.304285e+01 39 37 28
-3.462542e-01 -7.306884e-01 -1.244179e+01 85 69 64
-8.939633e-01 -5.282597e-01 -1.295176e+01 188 185 175
-8.651806e-01 -4.857322e-01 -1.318903e+01 126 118 115
-1.899427e-01 -7.515342e-01 -1.238719e+01 179 190 171
-1.899427e-01 -7.515342e-01 -1.238719e+01 179 190 171
-7.070815e-02 -7.542160e-01 -1.239176e+01 110 99 96
-3.141564e-01 -5.952105e-01 -1.301687e+01 75 70 59
-3.141564e-01 -5.952105e-01 -1.301687e+01 75 70 59
-3.121206e-01 -5.952217e-01 -1.301300e+01 200 198 177
-1.464861e-02 -7.545643e-01 -1.239507e+01 172 166 152
-1.613779e-02 -7.543160e-01 -1.239491e+01 172 166 152
1.037675e-01 -6.657943e-01 -1.279361e+01 171 165 155
1.837124e-01 -1.600763e-01 -1.478392e+01 162 178 174
-2.242026e-01 -4.453993e-01 -1.303349e+01 41 45 46
3.108547e+00 -4.609753e-01 -1.366800e+01 49 58 40
2.208755e+00 2.593183e-01 -1.610124e+01 23 24 20
3.073531e+00 -3.384037e-01 -1.372864e+01 48 57 35
3.059545e+00 -2.003772e-01 -1.392378e+01 34 45 29
4.431342e+01 2.111686e+00 -2.280901e+01 56 60 52
2.614875e+00 6.024074e-01 -1.587451e+01 65 79 55
2.687956e+00 7.130341e-01 -1.562995e+01 65 71 78
2.746190e+00 6.992272e-01 -1.554111e+01 194 202 192
2.938037e+00 8.837674e-01 -1.590292e+01 80 92 117
2.566038e+00 1.264034e+00 -1.708290e+01 78 83 84
2.760736e+00 7.811866e-01 -1.554342e+01 223 226 224
3.386090e+00 2.671891e-01 -1.380522e+01 43 53 74
2.995085e+00 1.133747e+00 -1.651246e+01 224 231 223
2.823264e+00 1.026081e+00 -1.609201e+01 71 77 92
3.633837e+00 2.048735e-01 -1.282999e+01 206 222 218
-8.897449e-01 -6.568086e-01 -1.259383e+01 142 144 131
-9.074241e-01 -6.190887e-01 -1.268310e+01 121 121 113
-9.112892e-01 -6.076870e-01 -1.277547e+01 72 70 64
-3.884145e-01 -7.085195e-01 -1.253146e+01 167 169 152
-2.501065e-01 -7.348726e-01 -1.245804e+01 41 43 30
-2.555776e-01 -5.820907e-01 -1.306209e+01 167 163 144
5.771162e-02 -7.271942e-01 -1.253507e+01 183 180 169
-5.592936e-02 -6.061627e-01 -1.300128e+01 61 64 55
-2.582669e-01 -5.226620e-01 -1.323103e+01 137 136 113
3.748116e-01 -7.397010e-01 -1.252903e+01 163 160 142
2.649657e-01 -3.113988e-01 -1.409994e+01 98 96 85
1.554651e-01 -1.500212e-01 -1.479803e+01 149 144 146
8.555779e+01 6.552951e+00 -3.312674e+01 82 85 90
-1.893868e-01 -1.852852e-01 -1.301287e+01 77 84 92
-1.942458e-01 -1.875975e-01 -1.301113e+01 77 84 92
-1.911768e-01 -1.896888e-01 -1.300969e+01 114 121 126
2.938707e+00 8.179390e-01 -1.592855e+01 221 227 221
3.453435e+00 1.750092e-01 -1.371960e+01 47 52 48
2.758653e+00 7.042217e-01 -1.548783e+01 217 223 212
3.373640e+00 2.542201e-01 -1.393638e+01 36 40 36
3.477327e+00 8.585972e-01 -1.584061e+01 101 104 117
2.778765e+00 1.126602e+00 -1.675276e+01 44 51 45
2.789038e+00 1.161005e+00 -1.674458e+01 223 227 229
3.580684e+00 5.101989e-01 -1.457834e+01 228 236 237
3.371626e+00 2.456605e-01 -1.372360e+01 54 64 63
3.586376e+00 3.185836e-01 -1.392392e+01 87 96 106
2.814029e+00 1.030075e+00 -1.613565e+01 208 214 203
3.443234e+00 3.237455e-01 -1.382654e+01 60 68 92
2.828886e+00 1.045206e+00 -1.614724e+01 76 81 85
2.849349e+00 9.852260e-01 -1.583427e+01 142 145 156
3.402517e+00 3.762801e-01 -1.375515e+01 68 76 84
3.205695e+00 -1.657683e-02 -1.255871e+01 107 107 133
3.411325e+00 -3.019227e-01 -1.395481e+01 14 20 14
3.345625e+00 -5.057452e-01 -1.443422e+01 138 139 141
-1.382239e+00 -2.500761e-01 -1.361345e+01 202 203 205
-1.501473e-01 -6.467298e-01 -1.262410e+01 172 174 171
-7.486900e-01 -7.308774e-01 -1.231934e+01 129 130 127
6.776081e+00 -1.643507e+00 -1.083049e+01 80 85 74
3.669727e+00 -1.181900e+00 -1.132957e+01 158 159 156
-9.766365e-01 -6.375124e-01 -1.274067e+01 189 189 189
-5.464941e-01 -7.279130e-01 -1.217978e+01 202 207 211
3.503421e+00 -3.488617e-01 -1.573705e+01 31 36 29
3.644516e+00 -3.194796e-01 -1.533440e+01 151 154 152
1.641617e-01 -2.785149e-01 -1.450142e+01 151 151 150
1.753110e-01 -9.493383e-01 -1.173870e+01 187 189 188
9.439732e-01 -8.372407e-01 -1.244740e+01 191 191 189
3.280286e+00 -1.256858e+00 -1.125514e+01 24 32 19
8.499221e+01 5.116019e+00 -2.877112e+01 239 243 244
-1.447693e+00 -3.927222e-01 -1.303774e+01 63 71 75
-9.608761e-01 -6.222496e-01 -1.279243e+01 196 194 188
-8.335910e-01 -4.493703e-01 -1.328319e+01 210 210 212
3.730218e-01 -6.935784e-01 -1.272838e+01 191 191 186
3.270142e+00 -2.056865e-01 -1.518361e+01 20 25 22
3.330204e+00 -3.866228e-01 -1.429634e+01 15 20 17
3.998583e+00 -1.167781e+00 -1.209580e+01 51 52 40
3.998583e+00 -1.167781e+00 -1.209580e+01 51 52 40
3.673056e+00 -1.531725e+00 -9.598806e+00 158 158 151
-6.851948e-01 -7.833110e-01 -1.219956e+01 172 176 174
3.179998e-01 -7.350659e-01 -1.253880e+01 151 150 151
3.565965e+00 -4.325330e-01 -1.540525e+01 61 71 65
2.343263e+00 -1.257375e+00 -1.082628e+01 30 34 25
2.236457e+00 -1.270734e+00 -1.066716e+01 17 22 18
1.968248e+00 -1.300619e+00 -1.032271e+01 25 30 23
-1.471327e+00 -1.404727e-01 -1.412358e+01 87 102 61
-1.513298e+00 -4.231375e-01 -1.304224e+01 154 148 108
-7.020902e-01 -2.843666e-01 -1.428162e+01 201 205 208
-1.456796e+00 -3.741598e-01 -1.308711e+01 83 90 96
-8.802085e-01 -5.393097e-01 -1.309518e+01 101 93 90
-4.394050e-01 -3.220769e-01 -1.419667e+01 170 174 173
-9.029825e-01 -6.375835e-01 -1.265420e+01 131 131 129
1.406792e-02 -2.069623e-01 -1.479170e+01 100 103 105
2.183231e-01 -7.222269e-01 -1.256876e+01 140 140 142
1.052187e+00 -7.817688e-01 -1.262025e+01 88 110 58
3.483820e+00 -2.969575e-01 -1.584246e+01 118 121 120
3.497785e+00 -3.210791e-01 -1.569523e+01 122 121 127
3.625815e+00 -2.739730e-01 -1.531771e+01 134 135 137
3.890337e+00 -2.433146e-01 -1.552764e+01 59 60 50
4.297995e+00 -1.359990e+00 -1.183518e+01 154 154 153
3.531675e+00 -1.245331e+00 -1.110257e+01 74 70 59
3.617240e+00 -1.572265e+00 -9.884214e+00 28 38 25
6.097176e+00 -1.623487e+00 -1.084992e+01 80 90 64
-1.480135e+00 -4.860743e-01 -1.279441e+01 191 197 197
-9.438881e-01 -6.065985e-01 -1.283498e+01 170 170 167
-8.680533e-01 -5.219569e-01 -1.312291e+01 122 121 117
-9.118395e-01 -6.253787e-01 -1.271391e+01 136 138 133
-1.190146e-01 -2.842316e-01 -1.442559e+01 157 158 153
8.397167e-02 -2.038941e-01 -1.478959e+01 43 48 57
2.626949e-02 -9.362497e-02 -1.476865e+01 105 111 114
-1.211502e-02 -6.760656e-02 -1.479552e+01 82 82 96
3.475121e+00 -2.642864e-01 -1.584665e+01 22 27 35
3.526117e+00 -5.283392e-01 -1.461981e+01 132 136 136
3.191461e+00 -4.749059e-01 -1.424869e+01 21 22 22
3.050529e+00 -1.403320e+00 -1.053784e+01 21 26 21
3.295175e+00 -1.353451e+00 -1.074039e+01 83 76 59
-1.504371e-01 1.046155e-01 -1.310146e+01 40 46 52
2.838926e+00 4.094080e-01 -1.482882e+01 176 179 168
2.867462e+00 4.059881e-01 -1.480637e+01 42 50 35
2.757090e+00 3.732448e-01 -1.463285e+01 61 75 50
3.634324e+00 -4.563551e-02 -1.300893e+01 37 40 33
-7.431854e-01 -2.794580e-01 -1.430034e+01 153 154 150
-8.308164e-01 -3.531156e-01 -1.395228e+01 213 212 212
-9.655919e-01 -5.836986e-01 -1.292037e+01 172 171 169
-1.330719e+00 -6.465371e-01 -1.215376e+01 197 197 196
-5.495436e-01 -4.635650e-01 -1.349096e+01 188 188 186
-7.330184e-01 -6.894887e-01 -1.229530e+01 203 207 207
-7.005819e-01 -6.872077e-01 -1.231180e+01 209 214 209
-2.168863e-01 -5.438989e-01 -1.315385e+01 134 137 131
5.078617e-02 -9.452160e-01 -1.172302e+01 207 208 209
3.501753e+00 -5.289043e-01 -1.464917e+01 122 126 126
3.519452e+00 -1.232356e-01 -1.570222e+01 94 98 87
3.519452e+00 -1.232356e-01 -1.570222e+01 94 98 87
-1.612206e-01 -1.814060e-01 -1.299398e+01 151 157 158
3.443866e+00 -3.293755e-01 -1.440835e+01 20 25 32
3.931623e+00 -7.158052e-01 -1.338162e+01 144 143 149
3.323116e+00 -1.512198e+00 -1.003168e+01 61 76 52
-1.709127e-01 4.485286e-02 -1.305728e+01 26 30 40
2.580896e+00 -1.080500e+00 -1.055188e+01 132 133 132
4.348844e+01 1.597650e+00 -2.186257e+01 57 59 58
-1.454248e+00 -4.269557e-01 -1.304596e+01 115 115 120
-1.487731e+00 -5.048274e-01 -1.273406e+01 101 100 99
-8.209357e-01 -4.348439e-01 -1.345077e+01 49 49 47
-7.259651e-01 -7.605611e-01 -1.229480e+01 144 146 143
-3.612410e-01 -5.646006e-01 -1.313467e+01 182 182 175
-3.612410e-01 -5.646006e-01 -1.313467e+01 182 182 175
-6.510420e-02 -2.561514e-01 -1.420506e+01 212 211 209
-2.494850e-01 -5.175994e-01 -1.324155e+01 58 55 63
-6.650555e-03 -7.217789e-01 -1.254235e+01 187 187 184
-4.409786e-01 -8.937207e-01 -1.157131e+01 131 134 138
1.537187e-01 -9.546285e-01 -1.173083e+01 165 164 170
3.347696e+00 -6.489064e-01 -1.377482e+01 127 131 133
3.203952e+00 -4.273797e-01 -1.430007e+01 36 47 42
2.153063e+00 -1.296644e+00 -1.054054e+01 18 19 19
1.888962e+00 -1.303736e+00 -1.034144e+01 85 105 56
3.531631e+00 -7.236278e-01 -1.325931e+01 63 63 68
2.604367e+00 1.154117e-02 -1.477309e+01 64 72 52
3.679930e+00 -1.573925e+00 -9.513112e+00 46 54 37
2.840432e+00 5.034343e-01 -1.540033e+01 62 71 68
2.879376e+00 3.779128e-01 -1.487241e+01 169 174 156
2.904621e+00 4.181801e-01 -1.478685e+01 184 188 171
3.326889e+00 -4.736624e-01 -1.171459e+01 134 151 167
3.326889e+00 -4.736624e-01 -1.171459e+01 134 151 167
3.790522e+01 -8.214063e-02 -2.021618e+01 67 63 64
4.108156e+01 1.352524e+00 -2.202309e+01 93 100 97
-1.999243e+00 -2.411514e-01 -1.326420e+01 182 182 182
-1.314477e+00 -2.305886e-01 -1.391418e+01 82 84 72
-1.208144e+00 -1.765960e-01 -1.415562e+01 84 82 90
-1.485243e+00 -5.311875e-01 -1.266743e+01 61 57 54
-6.673867e-01 -2.838580e-01 -1.428492e+01 144 144 143
-4.641539e-01 -2.368690e-01 -1.454138e+01 158 155 161
-1.343125e+00 -6.576337e-01 -1.217504e+01 63 70 73
-6.211531e-01 -2.860372e-01 -1.402891e+01 119 119 128
-9.165479e-01 -5.782863e-01 -1.280347e+01 62 61 64
-8.191336e-01 -4.648114e-01 -1.321918e+01 215 215 210
-4.975203e-01 -2.683795e-01 -1.409255e+01 154 152 165
-1.265152e+00 -6.741039e-01 -1.204844e+01 192 192 194
-1.234578e+00 -6.862350e-01 -1.200369e+01 193 192 197
-7.420295e-01 -7.490628e-01 -1.232353e+01 88 92 87
-4.595247e-01 -6.453590e-01 -1.277405e+01 138 138 134
8.162345e-02 -5.645312e-02 -1.488683e+01 190 200 185
-2.308909e-01 -5.630256e-01 -1.305612e+01 55 55 60
4.651133e-01 -3.069072e-01 -1.448203e+01 187 192 189
4.651133e-01 -3.069072e-01 -1.448203e+01 187 192 189
-3.952039e-01 -7.706651e-01 -1.224324e+01 195 201 193
-3.410349e-01 -8.933533e-01 -1.186025e+01 205 209 208
3.441348e-02 -6.341923e-01 -1.289305e+01 150 149 152
-3.501737e-01 -7.437263e-01 -1.212809e+01 202 203 195
1.159188e-01 -9.500865e-01 -1.174239e+01 207 210 210
-1.934970e-01 -3.191798e-01 -1.326538e+01 112 122 126
-1.934970e-01 -3.191798e-01 -1.326538e+01 112 122 126
5.373277e-01 -9.264033e-01 -1.189193e+01 149 149 147
3.522917e+00 -3.489871e-01 -1.524603e+01 43 49 45
3.263296e+00 -5.138798e-01 -1.425428e+01 135 140 133
2.987432e+00 -3.833117e-01 -1.408068e+01 45 61 38
3.299803e+00 -1.583435e+00 -9.934375e+00 21 25 26
-1.017860e+00 -1.346574e-01 -1.442671e+01 123 129 84
-8.400423e-01 -4.545570e-01 -1.334248e+01 54 49 47
-1.340486e+00 -6.638913e-01 -1.216708e+01 105 117 108
-6.819568e-01 -6.212152e-01 -1.283649e+01 75 74 84
-2.711769e-01 -4.152816e-01 -1.375962e+01 179 180 174
-4.192450e-01 -5.505295e-01 -1.316298e+01 118 117 115
-7.890931e-01 -6.794230e-01 -1.235865e+01 117 117 130
-7.205940e-01 -6.783775e-01 -1.233814e+01 211 216 211
1.431408e-01 -3.123576e-01 -1.417762e+01 125 129 130
4.716459e-01 -2.997595e-01 -1.448179e+01 152 151 157
-1.185647e-01 -6.614383e-01 -1.279834e+01 180 181 176
6.267671e-02 -6.469594e-01 -1.286119e+01 106 105 110
-4.462043e-01 -8.996625e-01 -1.156814e+01 59 57 68
-4.550954e-01 -8.304405e-01 -1.155997e+01 126 127 129
3.515455e-01 -9.669389e-01 -1.170904e+01 55 61 56
1.173288e+00 -5.810065e-01 -1.347428e+01 113 133 83
1.173288e+00 -5.810065e-01 -1.347428e+01 113 133 83
3.456735e+00 -2.852918e-01 -1.585977e+01 43 42 47
4.038110e+00 -7.415842e-01 -1.342309e+01 23 26 32
4.038110e+00 -7.415842e-01 -1.342309e+01 23 26 32
3.189036e+00 -1.340267e+00 -1.066768e+01 63 66 59
3.061925e+00 -2.577651e-01 -1.383807e+01 15 22 14
3.517380e+00 -1.235359e+00 -1.127633e+01 34 42 28
-1.388198e+00 -2.754791e-01 -1.351790e+01 72 84 84
-1.383842e+00 -2.689359e-01 -1.352949e+01 96 98 94
-1.379111e+00 -2.664381e-01 -1.355670e+01 58 65 73
-1.384500e+00 -2.682752e-01 -1.352651e+01 106 109 110
-2.097076e-01 -4.975013e-01 -1.333054e+01 66 69 74
-1.387612e+00 -2.975445e-01 -1.352175e+01 88 92 94
-1.382107e+00 -2.865750e-01 -1.354000e+01 132 136 135
-1.381498e+00 -2.832839e-01 -1.354128e+01 138 140 137
-1.379128e+00 -2.679651e-01 -1.355574e+01 150 154 152
-1.378633e+00 -2.648261e-01 -1.356161e+01 143 144 147
-1.378553e+00 -2.608982e-01 -1.356149e+01 67 72 80
-8.212171e-01 -4.524810e-01 -1.347306e+01 126 127 124
-8.234547e-01 -4.506933e-01 -1.345396e+01 129 130 125
-8.415011e-01 -4.662916e-01 -1.331211e+01 114 110 109
-1.387535e+00 -2.957415e-01 -1.352137e+01 74 75 87
-1.383570e+00 -2.719880e-01 -1.353061e+01 130 132 131
-1.381855e+00 -2.672526e-01 -1.353814e+01 128 129 124
-8.450435e-01 -4.928468e-01 -1.330161e+01 70 71 59
-8.367720e-01 -4.723485e-01 -1.335599e+01 141 140 136
-8.585650e-01 -5.118826e-01 -1.320177e+01 119 118 116
-8.220231e-01 -4.342908e-01 -1.345676e+01 114 114 112
-8.742002e-01 -5.327023e-01 -1.307541e+01 80 80 81
-2.371513e-01 -5.613247e-01 -1.308199e+01 137 138 133
1.972554e-01 -7.507800e-01 -1.227478e+01 120 121 116
-8.241054e-01 -4.504995e-01 -1.349736e+01 38 30 28
-7.997581e-01 -4.128850e-01 -1.362891e+01 135 137 130
-7.997581e-01 -4.128850e-01 -1.362891e+01 135 137 130
-7.915206e-01 -3.923575e-01 -1.368304e+01 69 75 71
-7.915206e-01 -3.923575e-01 -1.368304e+01 69 75 71
-7.960165e-01 -3.992742e-01 -1.365277e+01 83 85 77
-8.104505e-01 -4.261837e-01 -1.354352e+01 138 143 139
-8.109143e-01 -4.258904e-01 -1.354021e+01 130 132 125
-8.653167e-01 -5.151485e-01 -1.320144e+01 125 105 90
-8.319804e-01 -4.655063e-01 -1.339007e+01 140 140 136
-8.419176e-01 -4.836356e-01 -1.332159e+01 117 116 109
-8.444777e-01 -4.891045e-01 -1.329817e+01 132 130 129
-8.411988e-01 -4.811636e-01 -1.332473e+01 55 57 60
-8.377869e-01 -4.753914e-01 -1.334603e+01 140 137 134
-8.238966e-01 -4.470627e-01 -1.344754e+01 64 67 61
-8.136518e-01 -4.255581e-01 -1.351899e+01 124 129 122
-8.468787e-01 -4.888667e-01 -1.328233e+01 146 142 139
-8.373559e-01 -4.709411e-01 -1.334488e+01 135 135 134
-8.260332e-01 -4.493517e-01 -1.342414e+01 63 62 62
-8.586432e-01 -5.094334e-01 -1.320100e+01 52 53 53
-8.485689e-01 -4.911097e-01 -1.326888e+01 141 142 136
-8.783886e-01 -5.488780e-01 -1.305534e+01 120 121 117
-8.529781e-01 -4.980770e-01 -1.323921e+01 137 133 129
-8.598366e-01 -5.106445e-01 -1.318548e+01 129 130 122
-8.722291e-01 -5.345697e-01 -1.309593e+01 136 135 126
-8.167111e-01 -4.270828e-01 -1.349090e+01 119 121 120
-8.588614e-01 -5.075043e-01 -1.319186e+01 133 131 125
-8.345578e-01 -4.599991e-01 -1.336735e+01 131 131 129
-8.293211e-01 -4.494683e-01 -1.340385e+01 122 121 117
-8.292864e-01 -4.494352e-01 -1.340384e+01 122 121 117
-9.006368e-01 -5.881311e-01 -1.288587e+01 128 130 127
-8.387455e-01 -4.674859e-01 -1.333371e+01 140 139 132
-8.397392e-01 -4.698851e-01 -1.332374e+01 130 127 125
-8.310557e-01 -4.509207e-01 -1.338993e+01 124 121 115
-8.312056e-01 -4.508354e-01 -1.338990e+01 124 121 115
-8.342806e-01 -4.571090e-01 -1.336655e+01 122 122 121
-8.464248e-01 -4.791408e-01 -1.327984e+01 130 129 124
-8.305833e-01 -4.485364e-01 -1.339303e+01 113 115 108
-8.310387e-01 -4.481884e-01 -1.338936e+01 116 116 110
-8.387791e-01 -4.625994e-01 -1.333242e+01 116 118 107
-8.793867e-01 -5.396487e-01 -1.303304e+01 126 124 122
-8.638648e-01 -5.080454e-01 -1.314967e+01 120 119 114
-8.570550e-01 -4.941662e-01 -1.319938e+01 109 108 105
-8.633837e-01 -5.056611e-01 -1.315297e+01 102 103 100
-8.697623e-01 -5.166545e-01 -1.310580e+01 115 114 109
-8.782651e-01 -5.355410e-01 -1.303182e+01 108 109 103
-8.644218e-01 -4.839769e-01 -1.319228e+01 73 72 71
-2.110055e-01 -5.470178e-01 -1.312701e+01 81 81 83
-2.121340e-01 -5.468698e-01 -1.312714e+01 81 81 83
-1.590565e-01 -5.412126e-01 -1.316172e+01 67 68 66
-1.529904e-01 -5.403414e-01 -1.316551e+01 59 63 61
-1.529904e-01 -5.403414e-01 -1.316551e+01 59 63 61
-8.112176e-01 -4.334408e-01 -1.354192e+01 124 126 122
-8.329477e-01 -4.661021e-01 -1.338322e+01 140 141 137
-8.644132e-01 -5.259481e-01 -1.315821e+01 63 62 61
-8.584452e-01 -5.096201e-01 -1.319592e+01 134 134 130
-8.402003e-01 -4.744694e-01 -1.332649e+01 86 85 86
-8.589738e-01 -5.104561e-01 -1.319266e+01 123 123 113
-8.697715e-01 -5.297976e-01 -1.311591e+01 137 137 135
-8.389465e-01 -4.695432e-01 -1.333421e+01 141 142 138
-9.040774e-01 -5.955011e-01 -1.286484e+01 51 54 55
-8.559949e-01 -5.016954e-01 -1.321210e+01 140 141 136
-8.735900e-01 -5.337864e-01 -1.308510e+01 144 139 132
-8.556897e-01 -4.979711e-01 -1.321467e+01 137 137 134
-8.556891e-01 -4.979721e-01 -1.321467e+01 137 137 134
-8.770545e-01 -5.414466e-01 -1.305146e+01 130 131 126
-8.582323e-01 -5.028839e-01 -1.319443e+01 132 128 125
-8.913101e-01 -5.680788e-01 -1.294432e+01 132 134 122
-8.720496e-01 -5.279541e-01 -1.309053e+01 135 138 131
-8.945641e-01 -5.717667e-01 -1.292590e+01 92 93 90
-8.835896e-01 -5.491225e-01 -1.300419e+01 128 128 131
-8.710118e-01 -5.217351e-01 -1.309978e+01 132 131 128
-8.754978e-01 -5.309635e-01 -1.306109e+01 50 51 55
-8.759559e-01 -5.307596e-01 -1.306127e+01 50 51 55
-8.875223e-01 -5.553004e-01 -1.296952e+01 131 136 130
-8.879468e-01 -5.554231e-01 -1.296428e+01 86 88 86
-8.879468e-01 -5.554231e-01 -1.296428e+01 86 88 86
-8.859994e-01 -5.499661e-01 -1.298256e+01 111 117 116
-8.829663e-01 -5.430740e-01 -1.300607e+01 123 125 121
-8.487900e-01 -4.522903e-01 -1.330803e+01 132 129 123
-8.489007e-01 -4.523892e-01 -1.330807e+01 132 129 123
-8.943826e-01 -5.346971e-01 -1.296184e+01 81 81 84
6.684048e+00 -1.693186e+00 -1.002730e+01 15 21 38
6.684048e+00 -1.693186e+00 -1.002730e+01 15 21 38
-4.737677e-02 -4.806716e-01 -1.357339e+01 128 126 127
-9.151652e-01 -6.121865e-01 -1.275270e+01 142 144 145
3.015034e+00 -3.809014e-01 -1.253194e+01 87 87 50
-8.369368e-01 -4.517370e-01 -1.349046e+01 147 151 148
-1.921512e-01 -3.209410e-01 -1.299753e+01 81 89 93
-8.174591e-01 -3.978501e-01 -1.353644e+01 109 110 113
-8.624970e-01 -4.764306e-01 -1.319919e+01 121 120 130
4.078523e+01 1.174753e+00 -2.170951e+01 183 185 191
4.435328e+01 1.920105e+00 -2.270051e+01 114 112 114
-1.203460e-01 1.370081e-01 -1.308288e+01 253 253 253
3.358683e+00 2.324068e-01 -1.378680e+01 39 44 38
3.370986e+00 3.137394e-01 -1.372326e+01 239 243 246
3.404656e+00 3.356004e-01 -1.378769e+01 61 71 75
3.333158e+00 9.317508e-02 -1.366018e+01 73 84 69
3.403456e+00 2.449990e-01 -1.375400e+01 80 90 79
3.432800e+00 2.775040e-01 -1.380574e+01 52 62 49
3.430755e+00 2.777191e-01 -1.380573e+01 52 62 49
-8.703083e-01 -4.868272e-01 -1.315443e+01 113 107 106
3.574464e+00 6.341704e-04 -1.309467e+01 60 62 62
3.389608e+00 1.234349e-01 -1.361458e+01 246 247 250
3.432295e+00 1.947117e-01 -1.369230e+01 66 66 72
3.408067e+00 3.267015e-01 -1.388101e+01 232 239 243
3.899519e-01 -3.826121e-01 -1.400178e+01 95 96 90
3.441583e+00 1.214953e-01 -1.374529e+01 43 50 61
3.424098e+00 1.710574e-01 -1.375196e+01 238 240 236
3.352176e+00 2.597467e-01 -1.390411e+01 34 45 41
3.984982e+00 -1.325698e+00 -1.130241e+01 76 95 51
3.389901e+00 2.141072e-01 -1.384660e+01 219 227 214
3.417502e+00 1.941563e-01 -1.371977e+01 242 242 243
3.366943e+00 2.242927e-01 -1.379292e+01 42 53 42
3.395633e+00 2.910256e-01 -1.382138e+01 59 68 65
3.436662e+00 3.306911e-01 -1.383437e+01 237 242 240
-1.554657e-01 -2.660005e-02 -1.304693e+01 131 135 130
3.774306e+00 -2.287647e-01 -1.307600e+01 78 81 74
3.603239e+00 -5.127477e-02 -1.306522e+01 64 64 77
3.424836e+00 1.419732e-01 -1.369338e+01 229 231 236
3.371260e+00 2.824495e-01 -1.383710e+01 234 243 238
3.497587e+00 3.062024e-01 -1.389511e+01 73 81 92
-8.672371e-01 -4.785571e-01 -1.318508e+01 117 114 119
4.508961e-01 -6.699172e-01 -1.278471e+01 127 129 122
3.405139e+00 1.551405e-01 -1.368905e+01 104 111 134
3.412300e+00 1.667311e-01 -1.369409e+01 231 240 235
3.398283e+00 1.889035e-01 -1.370618e+01 56 67 58
3.433472e+00 2.053567e-01 -1.373232e+01 64 72 92
3.429880e+00 2.113046e-01 -1.371692e+01 74 79 90
3.411803e+00 2.842136e-01 -1.378500e+01 231 235 235
3.408119e+00 2.840968e-01 -1.378442e+01 231 235 235
3.431723e+00 3.400128e-01 -1.382003e+01 80 86 82
-8.654312e-01 -5.155817e-01 -1.320355e+01 55 43 34
-8.651204e-01 -5.156852e-01 -1.320347e+01 55 43 34
-8.844878e-01 -5.581477e-01 -1.300846e+01 63 66 64
-8.153398e-01 -4.421837e-01 -1.353773e+01 50 40 28
-8.589443e-01 -5.104730e-01 -1.319263e+01 128 124 115
-8.566295e-01 -5.064863e-01 -1.320967e+01 134 134 134
-8.055382e-01 -4.244852e-01 -1.358591e+01 132 132 123
-8.111519e-01 -4.333696e-01 -1.354192e+01 115 116 107
-8.593513e-01 -5.070950e-01 -1.318834e+01 139 138 128
-8.582483e-01 -5.059144e-01 -1.319511e+01 134 132 127
-8.558233e-01 -5.012940e-01 -1.321543e+01 143 141 131
-8.558179e-01 -5.012828e-01 -1.321543e+01 143 141 131
-8.736638e-01 -5.303656e-01 -1.308067e+01 137 134 129
-8.274058e-01 -4.557097e-01 -1.342338e+01 132 133 127
-8.582457e-01 -5.030009e-01 -1.319446e+01 133 127 121
-8.734083e-01 -5.267854e-01 -1.308336e+01 138 138 127
-8.565457e-01 -4.990172e-01 -1.320784e+01 138 139 133
-8.409391e-01 -4.739941e-01 -1.332132e+01 140 135 129
-8.372158e-01 -4.679033e-01 -1.334763e+01 136 131 127
-8.372158e-01 -4.679033e-01 -1.334763e+01 136 131 127
-8.801084e-01 -5.377219e-01 -1.302761e+01 38 37 42
-8.562094e-01 -4.966629e-01 -1.320728e+01 133 130 125
-8.428230e-01 -4.742426e-01 -1.330699e+01 121 121 111
-8.375866e-01 -4.655461e-01 -1.334374e+01 133 134 123
-8.108324e-01 -4.241953e-01 -1.353820e+01 76 80 69
-8.674452e-01 -5.118895e-01 -1.312215e+01 110 107 96
-8.674452e-01 -5.118895e-01 -1.312215e+01 110 107 96
-8.483875e-01 -4.492246e-01 -1.330902e+01 83 79 79
-1.719666e-01 -5.429134e-01 -1.315269e+01 76 78 75
-1.577796e-01 -5.416511e-01 -1.316177e+01 70 71 72
-1.234982e-01 -5.366602e-01 -1.318765e+01 70 72 67
-1.238476e-01 -5.364874e-01 -1.318769e+01 70 72 67
3.520854e+00 -1.425289e-01 -1.363027e+01 71 77 63
3.446845e+00 1.267941e-01 -1.372854e+01 74 77 107
3.395237e+00 1.008162e-01 -1.361393e+01 118 121 137
3.447284e+00 1.310327e-01 -1.370448e+01 112 117 141
3.436114e+00 2.486147e-01 -1.403115e+01 68 77 86
3.434615e+00 2.092570e-01 -1.369801e+01 234 241 234
3.346274e+00 2.674027e-01 -1.395020e+01 50 58 56
3.324930e+00 2.883707e-01 -1.392007e+01 245 249 248
3.395048e+00 2.747362e-01 -1.377401e+01 69 77 89
3.429333e+00 3.222720e-01 -1.382342e+01 61 69 68
3.362314e+00 3.516054e-01 -1.375245e+01 76 83 102
1.393036e+00 -1.585095e+00 -5.266919e+00 91 102 106
1.562807e-01 -3.053199e-01 -1.415568e+01 58 57 54
-1.894419e-01 -2.265641e-01 -1.303883e+01 43 50 60
-7.028325e-01 -7.735783e-01 -1.224850e+01 140 141 135
-6.810658e-01 -7.655405e-01 -1.226722e+01 60 60 62
-6.525543e-01 -8.023667e-01 -1.214864e+01 106 109 98
-7.068332e-01 -7.798484e-01 -1.222514e+01 150 153 146
-6.443464e-01 -7.751987e-01 -1.223336e+01 58 61 53
-6.981299e-01 -7.532687e-01 -1.227769e+01 95 94 90
-6.059872e-01 -7.914852e-01 -1.219453e+01 122 123 117
-5.898867e-01 -7.945681e-01 -1.218934e+01 115 117 114
-6.892037e-01 -7.206743e-01 -1.226613e+01 22 24 23
-6.042870e-01 -7.302649e-01 -1.218857e+01 95 97 96
-7.266493e-01 -7.596792e-01 -1.229266e+01 136 138 129
-7.091750e-01 -7.112608e-01 -1.227063e+01 121 122 111
-5.699849e-01 -7.421273e-01 -1.216632e+01 103 104 98
-2.475821e-01 -8.458111e-02 -1.475996e+01 51 56 56
-6.617391e-01 -7.780682e-01 -1.223903e+01 118 120 105
-6.668329e-01 -7.761171e-01 -1.224652e+01 113 114 106
-8.370367e-02 3.776328e-02 -1.296385e+01 159 159 159
-7.954892e-01 -6.880095e-01 -1.237096e+01 32 34 28
4.114255e-01 -6.765907e-01 -1.280147e+01 152 154 141
3.399915e+00 3.948285e-01 -1.376336e+01 214 223 232
3.680805e-01 -7.221120e-01 -1.259377e+01 165 169 153
3.624552e+00 2.973676e-01 -1.443057e+01 84 91 95
3.102914e+00 -3.380354e-01 -1.373785e+01 36 48 28
3.413227e+00 3.779339e-01 -1.375818e+01 72 81 86
4.652594e-01 -6.411373e-01 -1.288082e+01 110 110 103
3.307549e+00 -3.422502e-01 -1.502103e+01 24 25 20
3.614967e+00 2.851007e-01 -1.443716e+01 219 224 211
-7.139736e-01 -6.907312e-01 -1.229951e+01 201 202 201
-6.545319e-01 -7.906133e-01 -1.220561e+01 155 159 156
-4.579295e-01 -7.649740e-01 -1.212698e+01 35 34 35
-1.323700e+00 -6.489631e-01 -1.215052e+01 207 201 195
-6.011264e-01 -7.840189e-01 -1.219938e+01 63 65 61
-1.334546e+00 -6.663996e-01 -1.216508e+01 125 130 121
-3.746224e-01 -1.222421e-01 -1.475012e+01 62 52 50
-3.746224e-01 -1.222421e-01 -1.475012e+01 62 52 50
-1.206696e+00 -7.110670e-01 -1.197014e+01 40 45 39
-1.236905e+00 -6.919003e-01 -1.200604e+01 98 100 93
-1.241169e+00 -6.895360e-01 -1.201206e+01 95 97 89
-1.340953e+00 -6.478856e-01 -1.216982e+01 114 117 109
3.185213e-01 -7.228954e-01 -1.259127e+01 164 164 158
4.241436e-01 -5.945686e-01 -1.313566e+01 161 162 159
